174 176 174 173 174 174 175 175 174 173 171 173 172 173 172 170 169 166 166 168 170 172 174 177 181 182 182 182 180 176 175 172 171 169 167 166 169 168 169 171 172 170 168 167 166 166 169 173 176 179 180 179 179 180 186 190 193 194 193 192 189 186 181 178 179 181 182 182 182 180 176 175 174 174 174 173 172 170 170 167 168 165 163 162 163 165 167 170 171 174 173 173 171 168 167 168 169 168 170 172 173 173 174 174 174 171 169 169 165 165 166 168 166 167 168 169 170 169 170 170 170 171 172 172 170 169 169 170 170 169 171 173 175 176 177 178 177 175 173 172 171 171 172 173 174 173 176 178 180 180 180 180 184 187 188 189 189 191 191 191 188 185 183 180 177 175 174 172 171 169 168 169 171 174 177 178 179 182 184 184 186 185 184 184 182 181 181 181 179 176 173 171 171 172 171 169 170 168 167 168 168 167 168 169 172 171 171 172 172 172 173 174 176 176 176 174 171 167 165 166 169 171 174 174 175 175 176 176 176 175 176 177 177 176 173 170 166 163 164 167 170 172 173 175 175 174 173 172 172 171 170 169 169 168 168 168
175 177 175 175 174 174 175 175 175 175 172 173 174 175 174 173 169 166 165 168 170 173 174 178 181 182 183 182 183 179 176 174 171 170 169 168 170 169 170 172 172 170 168 167 169 168 169 172 176 178 179 177 181 182 186 191 193 193 192 191 188 185 180 178 178 180 181 181 180 179 177 176 175 175 175 176 172 171 170 168 169 166 163 161 161 164 165 168 170 172 170 169 167 166 167 169 169 169 172 176 176 176 175 175 174 172 171 172 169 168 167 168 170 168 168 169 170 171 172 172 174 174 176 177 175 173 173 173 173 172 172 174 178 178 179 179 179 178 177 176 174 173 173 174 173 173 176 179 179 180 181 181 182 186 187 188 190 190 190 190 190 187 184 181 178 175 175 174 173 171 170 170 172 175 179 181 182 185 188 188 189 188 187 186 184 183 183 184 181 178 174 172 173 173 170 168 168 166 166 166 166 166 167 170 173 173 174 174 174 173 175 176 177 178 178 176 172 169 168 169 170 172 175 176 177 177 178 177 176 176 177 179 179 177 175 172 168 165 165 166 169 171 173 176 176 175 174 174 172 171 170 169 169 170 170 170
174 175 175 174 173 173 174 176 177 176 174 175 176 177 175 172 168 166 165 168 169 170 173 176 180 182 182 184 184 182 178 173 172 170 170 170 170 171 173 173 173 172 170 167 168 169 171 173 174 176 179 181 183 184 187 191 193 194 192 188 187 183 180 176 178 179 180 180 178 176 176 174 173 174 174 173 171 170 169 168 167 166 164 163 162 161 164 167 168 169 168 165 166 167 168 168 170 173 176 179 180 179 179 179 178 175 172 172 172 171 170 169 171 172 172 171 173 173 174 176 177 179 180 180 180 178 176 175 176 174 173 176 179 181 182 184 184 182 180 179 179 177 176 175 174 174 177 177 176 177 178 179 178 182 186 187 189 189 188 187 188 185 183 180 178 175 175 175 175 173 171 170 173 178 181 183 183 187 190 191 190 189 188 187 186 185 184 183 182 178 175 173 171 172 170 169 168 166 166 166 165 163 165 168 171 173 174 173 174 176 176 176 177 177 177 175 173 172 169 169 172 174 176 176 177 178 178 177 176 176 178 180 179 178 176 174 170 166 164 165 168 170 173 176 176 175 174 173 172 171 170 170 171 172 173 173
171 172 173 173 173 173 175 177 178 177 175 176 179 178 175 172 169 167 166 166 168 169 172 175 178 180 180 182 183 181 177 173 172 171 170 170 171 171 172 173 173 172 170 167 168 167 169 170 173 175 179 182 183 184 187 190 190 190 188 186 184 181 178 174 175 177 178 177 176 174 174 173 171 172 172 171 171 170 169 169 168 166 165 164 163 162 162 163 166 167 165 163 165 166 168 169 170 174 178 181 182 181 180 182 181 177 173 171 171 171 171 172 171 174 175 175 175 176 179 181 182 183 184 184 185 183 180 179 177 176 175 178 181 183 184 187 190 187 185 184 184 182 179 178 174 174 176 176 174 175 176 176 176 180 183 185 187 187 186 186 186 184 183 181 178 175 173 175 174 173 171 170 174 178 181 184 184 187 189 190 189 189 188 188 187 186 184 183 180 176 174 172 170 171 171 170 169 168 167 167 165 163 165 167 170 172 174 174 174 176 177 177 177 176 174 173 173 173 171 172 175 178 178 177 177 179 179 178 177 176 177 178 178 177 176 174 171 167 165 165 167 170 173 174 175 175 173 172 172 171 170 170 171 172 172 174
170 170 171 173 173 173 176 178 179 178 176 177 179 177 174 172 170 168 166 165 165 167 170 173 176 179 179 180 181 180 176 173 171 170 170 171 172 172 172 172 173 172 170 167 167 167 168 170 172 175 178 181 182 183 186 188 188 188 186 185 181 178 175 172 172 174 174 174 173 172 172 170 170 169 169 170 171 170 170 171 169 168 166 166 166 165 164 164 165 164 163 162 164 166 168 169 171 175 180 183 183 182 182 182 182 179 174 171 171 172 173 173 175 178 180 181 180 181 185 187 188 189 189 189 189 186 183 182 181 179 179 182 185 187 188 191 191 190 188 187 187 185 183 182 179 176 176 174 173 174 175 175 177 180 182 183 186 186 186 184 186 185 184 182 180 176 174 173 173 172 170 170 173 178 180 183 185 187 188 188 188 189 190 190 189 186 183 181 179 176 174 172 171 172 173 173 172 171 169 167 166 165 165 166 168 171 172 173 174 174 175 176 176 174 172 172 173 173 172 175 178 181 181 179 178 181 181 180 179 176 176 177 178 177 177 175 172 167 166 165 167 171 172 173 174 174 173 172 172 171 170 170 169 169 171 173
169 169 171 173 172 173 176 180 179 178 176 176 177 176 174 173 171 169 166 164 164 165 168 172 175 179 179 179 179 178 174 171 170 169 169 170 172 172 172 171 173 172 170 167 166 166 169 171 173 175 177 179 181 182 184 185 185 184 182 182 179 176 174 171 170 172 172 172 171 170 171 169 169 168 169 170 172 172 172 172 170 170 168 167 167 167 166 165 166 164 164 163 164 166 168 169 172 176 179 181 183 181 181 182 181 179 175 171 171 172 174 175 179 181 183 185 185 186 188 191 193 193 193 193 193 191 187 185 184 183 183 186 186 188 189 192 192 192 192 191 191 189 188 187 184 179 176 174 173 174 175 176 178 181 183 184 186 186 186 184 183 183 184 182 182 180 175 172 171 170 170 169 171 175 178 182 185 186 186 187 189 190 191 192 190 186 182 180 178 176 175 173 173 174 174 173 174 173 170 168 167 166 166 165 165 169 171 172 173 172 174 176 174 172 172 172 173 173 173 177 181 184 183 180 180 182 183 183 181 177 176 176 175 175 175 174 171 167 165 165 168 172 173 173 174 175 174 173 171 170 169 168 167 166 168 171
167 167 169 170 171 173 176 177 178 178 177 176 178 177 175 173 171 168 165 165 162 164 168 172 175 177 177 178 176 175 172 170 166 167 169 170 170 169 169 170 172 171 167 163 165 166 168 171 172 173 176 179 180 181 182 182 181 181 180 178 176 173 171 168 168 171 171 170 169 168 168 169 168 169 169 169 171 173 174 173 171 170 168 167 167 166 166 165 166 165 164 162 162 162 165 168 170 173 177 179 183 181 180 180 180 180 177 172 171 173 175 179 182 187 187 188 189 189 191 192 194 196 195 196 196 193 190 187 187 185 187 189 190 190 191 193 193 192 193 195 193 192 192 191 187 183 178 173 173 174 176 178 180 182 182 183 186 185 185 184 184 184 183 183 182 180 176 171 169 169 169 168 170 174 177 181 184 185 186 186 187 188 190 190 185 182 180 177 175 173 173 172 172 174 174 173 173 173 172 170 168 166 165 166 166 167 170 172 172 172 172 172 171 168 169 170 170 170 174 180 183 184 184 182 181 184 186 185 182 177 175 174 174 172 171 170 169 167 166 167 169 172 173 174 175 175 174 173 172 171 170 169 167 166 167 170
164 166 169 171 170 172 175 177 178 178 178 177 179 178 176 174 171 169 167 165 163 162 166 170 173 175 175 175 175 173 169 166 164 165 167 168 168 168 168 169 169 167 165 162 164 169 172 172 173 174 177 179 179 179 179 179 179 179 178 176 174 171 169 165 165 168 169 168 167 166 165 166 166 167 167 168 170 172 173 172 170 169 167 166 166 166 165 166 166 165 164 162 161 162 164 166 168 171 175 177 181 180 180 180 180 178 174 171 173 175 178 181 185 190 192 194 193 193 195 196 198 199 198 198 199 197 193 189 187 188 190 192 192 192 193 194 193 193 195 197 197 196 194 193 190 185 180 174 172 173 177 180 181 184 184 185 186 186 186 186 186 185 185 184 182 181 177 172 169 167 166 166 170 173 177 180 182 184 185 185 185 185 185 185 182 180 178 174 173 170 168 169 169 170 171 171 171 173 172 171 169 167 165 165 164 166 169 171 170 170 170 170 168 166 167 168 169 171 175 180 184 185 184 182 181 184 186 185 182 178 176 175 172 170 166 165 166 167 168 169 171 173 175 175 175 174 174 174 173 172 173 172 169 166 165 166
162 164 167 170 169 171 174 176 177 178 178 177 179 178 176 175 172 171 169 168 164 162 164 169 172 174 173 173 172 171 167 164 162 163 165 166 166 166 168 169 167 165 163 162 165 170 173 173 173 176 177 178 177 176 176 175 176 176 175 173 171 168 166 163 163 166 168 167 166 165 163 163 164 164 165 165 168 170 170 170 169 168 166 165 163 162 163 165 166 167 166 166 165 165 166 167 168 171 175 177 179 180 180 181 180 177 174 174 176 179 182 186 189 193 194 198 197 197 198 200 202 203 201 202 200 199 194 189 188 190 192 194 194 194 193 195 195 195 196 197 198 197 196 194 192 188 183 178 175 174 177 180 182 185 185 186 187 188 188 188 188 187 187 187 185 182 179 175 171 166 164 164 169 172 176 180 181 183 184 183 183 183 182 181 181 181 178 175 173 169 166 165 165 167 169 170 171 172 171 170 167 164 163 163 164 167 169 169 168 168 168 168 165 163 165 169 171 175 177 181 184 185 184 182 180 183 185 184 182 178 176 175 172 167 164 163 166 169 172 173 174 175 176 176 176 175 176 176 175 175 175 173 171 166 164 163
161 163 166 168 168 170 173 175 175 177 177 177 178 178 176 174 172 173 171 169 165 162 164 169 171 173 172 172 170 169 167 164 162 163 164 166 165 165 167 169 168 165 163 163 167 170 172 172 173 176 177 176 174 174 174 174 173 174 173 171 170 167 165 162 162 165 168 167 166 164 162 162 162 163 163 164 166 168 168 168 168 167 165 164 164 162 163 166 168 169 170 170 170 170 170 170 168 172 175 177 179 180 182 182 180 177 177 178 183 186 190 195 194 196 198 201 201 201 203 204 205 205 204 204 203 201 196 190 190 193 197 198 198 197 197 198 200 200 199 198 200 199 198 197 194 192 189 184 180 176 176 179 182 185 185 186 188 189 190 190 189 188 188 188 187 184 181 178 173 168 164 164 168 172 175 179 181 182 183 183 182 182 182 182 183 183 180 177 174 170 167 165 163 164 168 170 172 172 170 169 168 165 163 163 166 168 168 167 167 167 167 168 166 163 166 171 175 178 179 181 183 184 184 181 179 182 184 183 180 177 176 175 171 168 164 163 167 172 175 175 175 177 177 177 176 176 178 181 180 179 178 177 175 171 168 166
163 163 164 167 168 169 173 176 175 177 176 178 178 178 176 174 173 172 170 167 165 163 165 169 171 174 173 170 170 167 167 164 164 164 165 167 167 166 166 165 166 164 163 163 167 170 173 174 174 175 175 174 174 174 174 172 173 173 173 172 170 167 166 165 164 166 167 167 165 164 164 165 163 164 165 165 163 164 164 165 167 166 165 163 164 165 166 168 171 172 175 176 177 177 176 175 174 174 176 179 181 181 180 181 180 180 184 187 192 195 198 199 200 200 202 205 206 208 207 206 208 207 206 203 202 200 197 194 194 197 199 201 201 201 201 201 203 204 204 203 201 202 202 202 199 198 194 189 186 182 180 179 182 185 186 186 188 190 192 193 192 192 191 190 189 187 184 179 176 171 170 169 170 173 176 178 180 181 181 183 185 186 185 184 185 184 182 180 176 171 167 164 164 165 167 169 171 170 170 170 169 167 167 168 170 170 167 167 166 167 167 168 168 167 169 172 176 180 183 183 182 182 182 181 179 178 180 179 177 174 173 171 169 168 167 167 171 174 177 177 178 179 180 179 178 179 181 183 184 184 183 181 179 175 172 170
165 165 165 167 169 170 172 174 176 177 176 177 178 178 176 175 173 172 170 168 167 165 166 169 170 173 173 172 168 167 167 166 166 165 166 166 167 167 166 166 163 163 163 165 167 171 174 174 173 173 172 172 173 173 172 171 171 171 171 172 171 170 169 168 167 169 169 169 167 166 166 167 167 166 166 165 163 163 164 164 164 164 165 166 168 170 171 174 175 178 181 183 183 184 184 183 181 180 180 181 182 183 185 185 186 187 192 196 199 203 205 206 206 205 207 210 212 211 210 208 208 207 207 204 200 196 196 197 199 200 201 203 205 205 206 207 209 210 209 208 207 206 206 205 203 202 199 195 192 189 186 184 183 184 186 187 189 190 192 194 194 193 191 190 190 190 188 184 179 175 175 174 174 175 178 179 180 182 182 184 186 187 187 187 187 185 183 181 178 174 170 165 163 164 167 169 169 169 170 170 170 169 170 170 170 170 169 166 165 166 168 169 170 170 171 174 178 182 183 183 182 182 181 180 177 175 175 173 173 171 169 167 168 169 170 171 173 176 179 179 181 182 182 181 180 180 182 184 186 187 185 184 183 180 177 175
166 165 166 167 168 169 171 174 176 178 176 176 177 178 177 175 173 173 172 170 169 168 168 170 170 172 174 173 170 168 168 166 167 166 166 166 167 167 166 166 163 164 164 165 167 171 174 174 173 172 171 171 171 170 169 169 169 168 169 171 173 173 173 172 172 172 172 170 170 170 170 171 171 169 168 167 166 166 165 165 163 165 167 169 172 174 176 179 179 181 184 186 188 189 189 188 186 185 185 186 187 189 191 192 192 195 200 203 205 208 210 210 209 209 211 213 216 215 213 211 209 209 207 204 199 196 197 201 203 204 206 206 207 209 211 213 213 214 214 213 211 209 208 206 204 204 202 199 197 195 192 189 187 186 187 187 189 191 193 194 195 196 194 193 191 190 190 187 183 179 178 178 178 179 181 182 182 183 183 184 187 189 190 190 189 186 183 182 179 175 171 165 162 163 166 168 169 168 169 170 169 170 169 168 169 168 167 165 164 166 169 171 172 173 175 176 178 182 183 183 182 181 179 179 176 174 172 171 169 167 165 165 168 171 174 175 177 180 181 182 184 186 186 185 184 183 184 185 186 187 187 186 184 181 179 177
166 165 166 167 167 168 172 175 176 179 177 175 177 177 177 176 174 175 173 172 172 171 171 172 172 173 174 174 172 170 168 166 165 165 166 166 166 166 166 165 165 165 165 166 167 170 173 173 172 169 169 169 168 167 167 168 167 166 168 170 174 175 176 176 175 175 173 171 171 170 171 172 172 171 171 170 170 169 169 168 168 170 173 174 176 179 181 184 184 185 187 189 192 193 194 193 191 191 192 193 193 194 195 195 198 201 205 207 209 212 214 214 213 212 215 217 217 217 216 214 211 210 207 203 200 197 200 204 206 207 210 211 210 213 216 218 218 219 219 218 216 214 211 210 208 206 206 204 202 201 197 194 192 188 188 188 190 192 194 195 195 197 197 197 195 194 192 191 188 183 182 180 181 183 185 185 185 184 183 184 186 189 191 192 190 185 183 181 178 175 170 164 162 163 165 167 169 168 167 168 169 169 167 166 166 166 165 163 163 166 170 171 172 174 176 176 178 181 182 182 182 180 178 178 176 174 172 171 169 164 164 166 167 171 174 177 179 182 183 184 186 188 189 187 186 185 184 185 185 187 187 186 186 183 181 180
165 166 165 166 166 169 172 175 177 177 176 176 178 177 176 176 175 176 175 174 172 172 173 175 175 174 175 175 173 171 169 169 165 165 165 165 165 166 165 164 166 165 165 166 167 169 171 171 170 168 166 165 167 166 167 167 168 169 170 172 175 176 176 177 177 176 175 176 173 172 171 171 171 171 171 171 171 171 172 172 173 176 178 179 180 183 185 187 187 190 191 192 194 196 198 198 196 198 199 198 199 200 201 202 203 206 209 211 214 215 215 216 215 215 216 217 217 218 219 217 215 212 208 206 203 204 206 209 209 211 213 213 215 216 220 223 224 225 223 221 220 218 215 211 209 208 207 206 205 204 202 201 199 195 191 189 191 193 194 195 196 198 199 200 198 195 194 193 191 188 185 183 184 186 189 190 188 185 185 185 186 189 191 192 191 188 182 180 178 173 168 164 162 163 166 167 167 167 167 167 166 166 166 167 166 164 163 162 164 167 169 172 174 175 177 178 178 179 179 179 179 178 177 175 174 174 172 170 168 167 169 170 171 173 175 177 181 185 187 188 187 190 191 190 188 186 184 183 184 186 187 186 186 184 183 181
164 165 163 164 166 168 171 173 175 176 175 176 177 177 177 177 176 177 176 174 172 173 175 177 177 176 177 177 175 173 171 170 168 167 166 165 166 167 167 167 166 165 165 166 167 169 171 170 169 167 165 163 164 165 166 168 169 171 172 173 175 177 178 179 180 180 180 178 176 173 171 170 169 170 172 173 173 172 174 178 178 181 183 184 186 188 191 193 194 196 199 199 199 200 200 200 202 205 206 206 206 207 208 209 211 213 215 217 217 217 217 218 217 217 217 218 218 220 220 220 219 215 211 209 208 210 212 213 214 215 215 215 218 220 225 228 230 230 229 227 226 223 220 216 214 213 211 210 210 208 207 207 205 201 197 195 194 195 196 197 200 200 200 200 199 197 196 194 192 190 188 186 186 190 193 195 193 190 187 186 186 189 191 193 192 188 182 179 175 171 168 166 163 163 164 166 166 166 166 166 164 165 167 168 167 165 163 163 166 168 170 172 174 175 176 177 177 176 176 176 177 176 175 174 173 172 171 170 170 172 174 176 177 177 178 179 184 187 188 189 189 191 191 191 190 187 184 183 184 186 187 188 187 185 184 182
164 164 162 162 165 167 170 171 173 174 174 175 177 177 178 178 178 178 176 174 173 175 177 178 178 178 178 178 176 173 172 171 170 168 167 166 167 168 168 168 166 165 165 166 167 169 170 169 167 165 164 163 165 165 167 169 171 173 173 175 176 178 179 180 181 182 181 179 177 174 171 171 169 169 171 174 173 173 177 180 181 184 187 187 190 192 195 196 199 202 205 205 204 203 202 202 205 208 211 212 211 212 213 213 214 216 217 218 220 218 218 220 220 218 218 219 219 220 219 219 217 214 211 210 212 214 216 217 217 217 217 217 220 225 229 232 234 234 233 231 230 228 226 222 218 217 215 214 212 211 210 209 208 205 201 199 198 197 197 199 200 200 200 200 201 199 198 196 194 192 191 189 189 193 196 198 197 195 191 188 188 189 190 191 189 187 182 178 173 170 170 168 165 164 163 163 164 164 164 164 163 164 166 168 168 166 164 164 167 168 169 171 173 175 175 174 174 174 173 174 174 173 172 171 170 170 170 171 174 178 180 181 181 180 180 181 186 188 189 190 190 192 192 191 190 188 186 185 185 185 187 187 187 185 184 183
165 164 162 162 165 166 168 170 171 173 173 174 177 177 178 179 179 178 176 174 174 176 177 177 177 177 177 177 176 174 172 171 169 168 167 166 166 168 169 169 165 165 165 166 168 169 169 168 165 165 165 164 167 167 168 170 172 173 174 176 177 178 178 178 180 182 181 178 176 173 172 171 169 168 169 172 175 178 181 183 185 188 190 191 194 196 199 200 203 207 210 211 211 208 207 208 209 212 215 216 215 216 217 217 217 218 219 220 221 218 218 220 220 218 218 219 219 219 217 215 215 214 214 212 215 218 220 220 220 220 220 221 224 229 233 235 235 235 234 232 231 230 228 226 223 221 219 218 217 215 213 212 211 208 205 203 201 198 198 200 202 202 203 202 201 201 200 198 195 194 192 191 193 195 197 199 198 197 193 191 190 189 189 188 186 184 181 179 174 170 170 169 166 164 162 162 163 163 163 163 163 164 165 167 167 167 167 166 167 168 169 170 172 174 173 171 171 172 172 173 172 172 170 169 167 168 171 173 177 181 182 182 182 182 181 182 185 187 188 190 190 192 191 190 188 188 187 186 185 184 185 186 186 184 183 181
163 165 163 163 164 165 168 168 170 171 171 175 176 178 179 178 179 178 177 175 174 175 176 176 178 179 179 177 177 175 171 168 168 168 166 165 165 166 166 167 165 164 163 164 167 169 169 168 167 168 168 167 167 167 168 171 173 174 174 176 177 179 179 177 178 180 180 180 177 175 173 172 172 169 168 172 175 180 182 184 187 189 191 194 194 197 200 203 207 210 212 214 214 214 213 211 211 216 219 219 219 219 220 220 219 218 218 219 219 220 220 220 221 221 220 219 217 217 216 216 216 215 214 215 217 221 223 224 223 222 223 225 228 231 234 235 236 234 232 231 230 229 229 229 226 224 223 222 219 216 215 214 212 209 206 204 202 201 201 201 203 204 204 204 205 203 201 198 194 192 192 193 194 197 199 201 201 200 197 195 191 189 188 186 186 184 181 178 176 173 169 168 168 166 165 165 164 163 163 164 164 163 163 166 167 168 166 166 166 168 169 169 169 170 170 170 172 173 174 174 173 171 169 167 165 169 172 176 180 182 184 183 183 181 181 181 185 187 189 190 191 191 190 188 187 186 186 187 186 185 183 182 183 182 180 178
164 166 164 164 164 165 166 167 169 170 171 173 175 177 179 179 179 179 178 176 174 173 174 178 178 179 179 178 178 175 171 168 166 166 165 165 164 164 165 165 164 163 163 163 167 169 170 170 169 170 170 169 167 168 169 171 173 174 174 176 177 178 177 176 177 179 180 180 178 175 174 174 174 170 167 170 174 178 180 184 187 189 191 193 194 197 201 204 207 211 213 215 217 217 216 214 214 218 221 222 222 222 222 221 220 218 218 218 220 221 222 222 222 223 221 218 217 216 216 216 215 215 217 219 221 223 224 223 223 224 226 227 230 232 234 235 235 233 232 231 231 231 230 230 229 228 227 225 221 218 216 214 214 210 207 205 205 203 203 204 203 204 204 205 206 204 202 199 197 193 192 192 196 199 201 203 203 201 199 197 192 189 188 187 187 184 181 179 177 174 171 169 168 166 165 164 164 162 162 162 163 163 163 165 166 167 166 165 165 167 168 168 168 168 171 173 173 174 175 175 175 174 169 164 163 168 172 176 179 181 183 183 183 181 181 181 184 187 190 190 189 188 187 186 187 185 185 187 186 184 182 180 180 179 176 175
166 168 166 165 165 165 166 167 167 169 170 171 173 175 178 179 179 179 178 177 176 175 175 178 177 177 177 177 176 174 170 168 167 167 166 166 163 164 164 165 164 165 164 163 165 168 170 170 169 171 172 172 170 171 173 175 175 176 176 178 179 179 178 177 178 179 180 179 177 175 174 174 174 171 168 169 174 177 179 183 186 189 190 193 194 197 202 206 209 213 215 217 219 220 220 219 219 221 224 226 225 225 224 223 222 221 221 222 223 224 225 226 224 224 222 219 218 218 217 217 215 215 218 220 222 224 224 224 225 228 230 231 233 234 235 236 236 235 234 234 234 233 233 233 232 232 230 228 226 223 220 217 214 212 209 207 207 208 208 207 206 206 207 207 208 207 204 202 200 195 194 195 198 202 203 206 205 204 201 199 195 192 191 189 188 185 182 181 180 177 174 172 170 169 167 166 164 162 162 162 163 164 164 164 166 167 165 165 166 168 170 170 170 171 173 174 175 176 176 177 177 174 169 166 165 168 172 176 178 181 182 183 183 181 181 181 184 188 190 190 188 187 186 187 185 184 184 185 185 183 180 180 181 180 178 177
168 169 167 167 166 166 167 167 167 170 171 171 170 173 177 179 178 179 178 177 176 175 174 174 175 174 174 175 173 172 170 169 170 169 167 166 164 164 165 165 166 167 166 164 163 166 169 170 169 172 173 172 173 174 176 178 179 180 180 182 182 181 179 179 180 181 179 178 176 174 174 174 173 171 169 170 174 177 179 183 186 188 190 193 196 198 204 208 211 215 217 219 221 222 222 221 221 222 225 227 226 225 224 223 225 224 226 228 227 228 228 227 226 223 221 221 220 220 219 219 218 218 220 223 225 226 227 227 230 232 233 233 237 237 237 237 238 238 238 238 238 237 237 237 236 237 235 232 228 226 223 218 216 213 210 208 209 211 211 210 210 211 211 211 210 209 206 204 202 198 197 197 199 203 205 207 207 206 203 201 198 195 194 192 189 185 182 182 183 180 176 174 173 172 170 168 167 164 163 162 163 165 164 164 166 167 165 166 168 170 171 171 173 175 174 175 176 177 178 178 177 174 171 169 168 171 172 176 179 181 183 183 183 181 181 180 182 185 185 186 186 184 184 185 184 183 183 184 184 182 180 179 180 181 180 179
168 169 168 167 165 166 166 165 166 169 171 171 169 172 175 178 178 179 178 177 176 174 173 172 171 172 173 172 170 169 169 170 170 170 167 165 163 163 165 165 166 167 167 167 165 165 167 169 172 172 173 174 175 176 179 180 181 182 184 185 183 182 182 180 181 180 178 177 175 175 174 173 172 173 172 174 176 178 181 183 186 188 191 193 196 200 205 210 212 215 217 220 220 221 222 222 225 226 227 228 228 226 225 224 223 227 230 229 230 229 228 228 226 223 222 222 222 222 221 220 220 222 225 227 228 229 231 231 232 234 236 236 238 239 240 240 239 241 241 241 240 240 240 239 239 239 237 235 232 229 227 224 219 214 211 210 211 214 215 215 214 214 214 214 212 211 209 206 203 200 196 198 200 204 206 208 209 209 206 204 202 198 196 192 189 186 184 183 182 181 177 174 173 173 172 170 169 167 164 162 162 163 163 164 165 167 166 166 168 170 172 174 175 174 175 175 175 176 176 176 175 171 170 170 170 172 175 178 180 181 182 182 181 180 179 180 180 182 182 182 181 181 182 183 182 182 183 184 183 179 179 180 181 182 180 178
169 169 167 165 164 165 165 164 166 168 169 169 169 171 174 176 176 177 177 176 175 174 172 172 171 171 170 169 168 167 168 168 169 168 166 164 163 162 164 165 165 166 167 168 166 166 166 167 170 172 173 174 175 177 180 182 183 183 183 184 184 183 183 181 179 178 176 175 174 173 174 174 176 177 177 179 181 182 184 186 186 188 192 195 197 200 205 209 212 215 217 220 220 221 223 224 228 230 231 231 230 227 224 222 225 229 230 231 230 229 228 227 225 222 222 223 224 224 224 224 225 227 230 231 233 234 235 235 234 236 238 239 241 241 241 241 243 243 242 241 241 241 241 241 241 240 238 237 234 232 229 225 221 216 212 211 213 217 218 218 218 218 218 218 215 213 211 207 203 200 196 197 201 205 207 209 210 210 208 206 203 199 195 192 189 186 185 184 181 179 175 173 172 173 172 170 169 165 163 162 163 163 162 164 166 168 167 167 168 170 172 174 174 173 174 174 174 174 174 173 171 169 167 168 169 172 176 179 180 181 182 183 182 180 177 177 179 181 181 180 178 178 179 180 180 181 182 182 181 179 179 180 181 182 180 178
167 167 166 164 164 163 163 164 165 166 167 167 167 169 171 172 173 174 175 174 173 173 172 172 172 170 169 169 168 169 168 167 167 167 165 164 161 161 163 164 165 166 166 167 167 168 168 168 169 170 171 172 174 176 179 181 181 182 183 183 183 181 181 180 178 177 175 174 173 173 174 176 178 180 181 184 185 187 187 188 188 190 194 197 199 201 205 208 211 214 216 219 220 222 225 226 230 232 233 233 231 228 225 223 224 225 227 228 229 228 227 226 223 221 222 224 224 225 226 226 228 230 231 233 235 235 235 235 236 238 240 241 243 241 240 242 242 242 242 241 242 242 242 242 242 241 239 238 236 232 229 226 222 218 214 214 217 219 221 221 221 221 220 221 219 217 214 210 206 201 197 199 202 206 207 210 211 211 209 205 202 198 193 190 188 188 186 185 181 177 174 171 171 171 170 169 167 164 163 163 165 164 163 164 166 168 168 167 167 169 172 172 172 171 172 172 171 171 169 168 166 165 166 168 170 172 176 179 179 179 181 183 183 179 175 174 175 177 177 176 174 174 175 177 177 178 178 178 177 176 178 179 180 181 179 177
165 166 165 164 163 162 162 163 164 165 166 165 165 167 169 170 171 172 173 172 172 172 172 172 173 171 171 171 171 170 168 166 166 166 165 164 161 161 163 163 166 166 165 165 167 170 172 171 171 172 171 172 173 175 177 178 179 180 182 183 181 180 180 178 178 177 175 174 173 173 175 178 181 184 186 189 191 192 192 191 192 192 195 198 200 201 205 207 210 213 215 219 220 223 226 228 229 231 232 232 231 228 226 224 224 225 226 227 227 226 225 225 222 221 223 225 226 227 229 230 232 233 235 236 236 237 236 236 237 238 240 242 241 239 240 242 242 244 243 243 242 242 242 242 242 241 239 238 235 231 228 224 222 219 217 217 219 222 224 224 224 224 224 224 222 220 217 212 208 203 199 200 202 206 208 210 210 211 209 205 202 198 195 192 188 188 187 185 182 177 174 172 169 170 169 168 166 164 164 166 166 165 164 165 166 167 167 167 166 168 170 171 170 169 170 171 170 169 166 164 164 165 168 170 171 173 176 178 178 177 180 182 181 179 175 174 173 171 172 173 172 172 172 174 174 174 175 175 174 174 176 178 179 180 178 176
166 166 166 166 165 164 164 164 165 164 164 163 164 165 166 170 169 171 171 171 171 171 171 171 171 171 172 172 172 171 169 166 165 164 164 164 164 162 162 162 166 166 165 165 167 169 171 174 173 173 173 174 175 175 175 178 179 181 183 183 181 179 179 180 178 176 175 173 175 176 179 182 184 189 191 194 195 197 197 196 197 197 198 198 201 204 205 208 212 216 218 219 222 225 229 230 231 231 232 233 231 231 228 225 222 223 225 227 227 226 225 224 222 221 223 226 228 231 232 234 236 236 238 239 239 238 237 236 236 239 240 239 239 239 240 242 242 243 245 245 245 243 244 245 243 242 239 237 235 233 229 225 222 220 220 222 222 224 227 228 228 227 227 227 225 222 220 216 211 206 202 200 203 206 209 210 211 211 209 207 204 201 196 192 189 190 189 186 182 177 173 169 168 168 167 167 167 167 167 167 165 165 165 165 167 167 167 166 166 166 167 167 168 167 167 168 167 166 165 165 166 169 173 174 173 173 174 176 177 177 178 179 180 180 176 174 171 169 169 170 169 169 169 169 171 172 172 171 172 174 176 177 177 177 176 175
165 165 165 165 165 165 165 166 167 165 163 161 162 164 165 167 168 169 169 169 169 169 170 170 171 171 172 172 173 171 168 165 163 164 164 164 164 163 163 164 164 164 163 165 167 169 171 174 175 176 176 176 176 175 176 178 179 182 181 180 179 178 177 177 176 175 175 175 179 182 186 190 191 195 196 198 200 202 202 201 200 200 199 200 201 204 206 210 214 217 218 220 222 226 230 232 231 231 231 231 231 231 229 227 223 222 223 224 225 225 225 225 224 223 225 227 232 234 235 237 237 239 241 241 241 240 238 238 237 237 237 237 237 237 239 241 242 243 245 246 246 245 244 243 241 240 238 236 235 232 227 224 221 221 224 226 227 228 230 232 231 230 228 228 227 225 222 219 215 209 204 202 202 205 209 211 211 211 209 207 204 201 197 194 192 191 189 186 182 177 172 168 167 166 166 166 167 167 167 166 165 165 165 165 166 166 164 164 164 164 164 165 165 164 165 165 164 164 165 166 169 172 174 175 174 173 174 175 176 175 176 177 177 177 174 171 169 167 165 165 166 166 166 166 167 168 169 169 170 172 174 175 174 174 173 171
163 163 163 163 165 164 165 167 168 166 164 162 164 166 165 165 166 167 167 165 167 167 168 169 169 170 170 171 171 170 167 163 163 163 164 165 164 163 164 165 165 163 162 164 167 169 172 175 178 177 177 177 176 175 175 176 179 180 180 178 179 179 177 175 175 175 178 181 184 187 191 195 196 199 200 201 204 205 205 205 204 203 201 201 201 204 206 212 215 218 219 220 223 225 228 230 230 230 230 230 231 230 229 228 225 223 222 222 223 225 226 227 227 228 229 230 232 233 234 236 237 238 240 241 242 240 238 237 234 233 233 234 235 236 238 240 242 242 243 244 244 243 241 240 239 238 236 234 232 230 226 223 221 223 226 228 229 231 232 232 234 233 231 231 229 227 224 221 217 211 206 204 204 206 209 210 211 210 208 206 203 200 198 196 195 193 190 187 183 178 173 168 166 165 167 169 169 168 168 167 166 165 165 165 166 166 165 163 163 163 163 163 163 162 163 163 163 163 165 168 171 173 174 173 172 172 172 174 174 173 173 174 174 172 170 168 167 165 165 163 164 166 166 165 164 165 166 167 168 170 172 173 173 172 169 167
163 163 163 163 164 164 165 167 168 167 165 164 166 168 166 166 165 166 165 164 162 163 165 165 167 168 168 169 168 168 166 163 163 164 165 166 164 164 165 166 167 164 161 163 166 169 173 176 177 177 176 176 175 174 174 175 177 177 177 178 180 180 178 175 174 176 181 187 190 192 196 199 201 204 204 205 207 209 209 208 205 204 202 201 201 203 206 212 217 219 220 221 223 225 226 227 227 228 229 230 230 229 228 228 226 224 222 221 223 225 228 229 231 232 232 233 233 234 234 236 236 236 237 238 238 235 233 232 231 230 231 233 234 235 237 240 242 242 241 241 241 241 239 237 235 234 231 229 228 227 225 223 225 228 230 231 232 233 234 235 234 233 233 232 231 228 226 223 219 212 207 204 206 207 209 209 210 209 206 204 202 199 197 196 196 195 192 189 185 179 173 168 164 164 168 172 171 170 169 168 168 166 165 164 167 168 167 166 163 163 162 162 162 162 162 163 163 162 165 168 170 173 172 170 170 170 172 173 172 171 171 171 169 166 164 165 165 166 166 164 165 167 167 165 163 163 164 165 166 168 170 172 172 171 167 165
162 163 164 163 164 165 167 166 168 168 165 166 168 169 168 167 165 164 163 162 163 163 163 163 164 166 167 167 167 166 166 165 163 163 165 166 164 164 165 167 165 163 162 162 166 169 173 175 177 177 176 175 173 173 174 175 177 179 179 180 182 182 179 175 175 181 186 191 194 197 200 203 205 206 206 208 211 211 211 209 208 206 204 203 204 203 207 213 217 218 221 222 225 226 227 226 227 228 230 231 230 229 228 227 226 224 222 225 226 228 230 232 233 234 234 234 235 234 235 236 236 234 231 230 229 229 229 228 229 231 233 235 235 237 239 241 241 239 238 239 239 238 237 236 234 232 229 228 227 226 227 228 230 233 235 237 238 238 237 236 236 235 233 233 231 229 227 224 220 214 208 207 208 209 210 210 210 209 207 205 202 198 199 198 197 195 192 190 186 179 173 169 166 168 171 172 171 170 171 172 171 168 166 165 166 168 166 163 161 162 162 161 161 162 164 165 165 165 166 166 167 169 169 169 169 171 173 173 170 169 169 167 166 163 163 164 166 168 169 168 166 167 168 166 164 163 163 164 166 167 167 169 170 168 166 163
161 163 165 166 168 169 168 167 168 168 166 167 169 170 169 168 166 166 165 165 166 165 165 165 167 168 170 170 169 168 166 165 164 165 166 166 164 164 165 167 166 164 162 162 164 168 172 176 178 177 175 173 173 173 174 175 177 179 179 180 181 181 179 178 179 184 189 194 198 201 204 207 209 210 210 212 215 215 215 214 213 212 210 209 208 208 212 215 218 219 222 223 227 228 228 228 227 228 229 230 228 228 227 227 226 225 224 226 229 232 233 236 235 237 238 237 237 234 233 233 231 229 226 225 223 222 223 225 228 231 234 236 236 237 238 238 237 234 233 233 235 236 236 237 236 233 231 229 229 229 231 232 235 238 239 242 243 243 242 241 240 238 236 234 232 230 227 224 221 215 211 209 210 211 212 213 212 210 206 204 201 200 201 200 198 196 192 190 187 180 175 171 170 172 174 173 172 172 173 173 172 169 167 165 167 166 164 162 161 162 162 161 163 164 166 168 168 167 167 166 167 169 169 169 171 172 174 173 171 169 169 167 164 163 164 166 168 171 173 172 170 169 169 167 165 164 164 164 165 166 166 168 168 167 164 162
164 165 168 170 172 172 171 170 170 171 169 170 171 172 171 170 168 168 170 170 171 170 168 167 168 170 172 173 172 170 167 165 166 168 168 166 166 166 166 168 168 167 164 162 163 166 171 174 176 176 174 173 173 173 174 175 177 179 179 180 181 179 179 180 182 187 191 195 200 204 206 210 211 213 213 214 215 215 216 216 216 215 215 215 215 215 217 219 220 221 223 225 227 228 228 227 227 228 228 229 228 228 227 227 228 228 227 229 232 234 235 237 238 239 239 238 234 231 228 227 225 223 221 220 219 218 221 224 227 231 234 234 233 233 233 232 232 229 228 228 231 232 234 235 236 235 234 234 234 235 236 237 238 241 244 245 246 247 246 245 244 241 238 236 234 230 227 224 221 217 215 213 212 213 214 214 213 209 206 205 202 202 203 202 200 197 192 190 187 182 179 176 174 176 176 174 174 175 175 174 172 169 166 165 165 164 163 162 162 164 164 164 165 167 170 172 173 171 169 168 169 171 171 171 172 173 174 173 171 169 169 167 165 164 165 168 171 173 174 173 170 168 169 168 167 165 164 165 166 165 165 167 167 166 164 163
168 168 169 171 173 174 174 173 172 174 173 173 172 173 172 171 170 171 172 174 174 172 170 168 168 171 174 174 174 171 168 165 167 169 169 166 167 167 168 170 170 169 166 163 164 166 170 172 174 175 174 173 173 173 174 175 177 179 179 180 180 178 179 182 186 190 194 198 203 207 210 213 215 216 217 218 217 216 217 219 219 219 220 219 219 219 220 221 221 223 225 226 225 227 227 226 227 227 228 228 228 228 228 228 229 230 231 233 236 238 238 240 240 239 238 236 231 226 222 220 216 215 214 214 214 216 219 221 227 231 232 231 229 228 226 226 224 222 222 222 225 226 227 228 231 232 235 236 237 238 240 242 243 246 249 249 250 251 250 248 246 243 239 237 234 231 227 224 221 219 217 216 216 215 214 214 211 208 206 206 205 205 205 202 201 198 193 189 186 183 181 180 180 181 181 177 178 178 176 174 172 168 165 163 164 163 163 163 164 166 167 167 168 169 173 176 176 174 172 171 171 173 174 173 173 173 173 173 171 170 169 168 167 165 166 169 172 173 172 172 169 167 168 169 168 165 165 165 166 166 165 167 168 168 166 165
170 171 172 173 172 175 175 175 174 175 174 173 174 174 174 174 173 173 175 176 174 173 171 170 169 171 172 174 175 172 170 169 171 171 170 168 168 169 171 173 172 171 167 164 163 166 170 172 173 175 173 171 172 170 172 173 177 179 179 179 179 180 181 184 188 192 195 200 204 207 211 215 217 218 220 221 220 217 217 219 221 223 223 221 222 223 224 223 222 222 224 226 224 225 226 227 226 228 229 229 229 228 229 230 233 234 234 237 239 242 243 243 240 238 234 230 224 219 215 211 209 207 207 209 210 213 216 218 223 229 227 224 224 220 219 218 217 217 217 217 218 220 222 222 223 226 230 232 234 235 237 242 243 244 246 248 250 249 249 249 247 244 241 240 237 233 229 224 219 217 218 218 217 217 215 213 210 208 209 208 206 206 205 204 201 197 192 190 188 187 186 184 184 185 184 183 181 180 178 175 173 170 166 162 162 163 165 166 167 168 169 171 171 172 176 179 180 178 173 173 175 175 174 174 173 173 173 173 173 172 169 167 167 167 168 169 171 172 171 169 168 168 168 167 167 166 167 167 167 168 167 167 168 169 169 168
171 171 172 173 173 175 176 177 177 177 176 174 176 176 176 176 175 175 176 176 175 174 173 172 171 172 173 173 173 173 173 172 173 172 171 170 170 172 173 175 173 171 168 166 165 167 170 171 172 174 173 171 171 169 171 173 176 177 179 178 179 181 182 185 189 194 197 200 203 208 212 216 218 219 221 222 222 220 218 218 221 223 225 225 225 226 227 226 225 225 223 223 224 225 225 226 226 228 230 230 229 229 231 232 234 236 237 240 243 244 243 241 235 232 228 224 219 213 210 206 203 202 202 203 205 208 212 214 218 221 221 218 217 212 210 211 211 211 211 211 212 212 214 215 214 218 222 224 226 227 230 235 236 238 240 240 241 241 243 245 244 243 241 241 238 234 231 227 222 219 218 217 218 218 215 213 211 209 209 209 207 206 204 203 200 197 193 192 192 191 190 187 187 187 187 187 185 183 181 177 173 170 165 161 161 163 166 168 169 170 171 173 174 175 178 180 182 180 176 176 176 176 174 174 173 173 173 173 173 172 169 168 166 166 167 167 168 168 168 167 168 169 168 167 167 166 166 168 169 170 170 169 171 171 169 168
172 172 173 174 174 175 177 179 180 180 179 177 177 177 178 178 179 178 178 177 176 176 175 175 174 176 176 175 174 174 175 175 174 172 172 172 173 174 175 176 175 173 171 169 168 169 169 170 172 174 174 172 171 169 170 173 175 177 178 178 179 181 183 187 191 197 200 202 205 210 214 218 220 221 222 223 224 223 221 221 221 223 226 227 228 229 230 229 229 228 227 225 225 225 226 226 227 230 232 233 234 236 236 236 237 238 240 243 244 242 239 236 231 225 221 218 213 208 204 200 199 198 197 197 199 203 208 211 211 212 212 212 209 207 206 206 206 206 205 205 205 206 206 207 209 211 214 216 216 218 221 226 228 231 232 231 231 231 234 236 239 242 244 243 240 237 234 230 225 221 220 220 221 219 216 214 213 211 211 210 210 207 204 202 200 199 197 196 195 193 193 191 191 191 192 191 189 186 183 179 174 169 165 163 163 164 168 169 171 173 173 176 177 178 180 181 184 182 178 177 179 178 176 174 174 174 174 173 173 171 170 169 167 165 166 166 166 167 168 168 169 171 169 169 168 168 168 169 171 173 173 173 173 172 170 169
172 173 174 175 175 175 178 180 180 181 181 181 180 181 182 182 182 181 179 178 177 176 176 176 176 179 180 178 175 176 176 176 175 173 172 173 174 175 175 176 176 175 173 171 170 170 169 169 172 174 175 173 171 170 171 173 175 177 177 177 179 182 184 188 193 199 202 204 208 212 215 218 221 222 224 224 226 226 225 225 222 223 225 226 229 230 231 230 230 231 231 230 229 229 230 229 233 236 239 239 241 242 241 241 240 240 241 243 242 238 233 229 224 218 214 211 207 201 197 193 193 193 192 191 193 197 202 205 205 203 203 205 202 204 204 202 200 200 200 200 198 199 200 200 202 203 205 206 207 209 212 218 220 224 224 223 222 222 224 227 232 238 242 243 241 238 236 232 227 223 223 222 223 221 217 216 215 213 214 212 211 208 205 203 202 201 201 201 199 197 196 196 194 193 193 193 191 188 184 180 175 169 165 164 166 166 168 170 173 174 175 177 178 179 181 182 184 182 178 179 181 180 178 176 175 175 175 174 173 171 171 170 167 166 166 166 167 167 169 170 171 173 171 170 171 170 171 172 172 174 175 175 175 173 170 170
172 172 173 174 174 175 177 180 180 182 182 180 180 181 183 184 183 183 181 179 178 175 175 176 179 181 181 179 178 176 176 176 176 175 175 174 175 176 177 178 178 177 175 172 171 170 169 170 171 173 173 172 172 170 171 173 175 176 177 178 179 180 184 189 194 199 204 209 213 215 217 220 221 222 224 226 227 227 227 227 225 225 225 226 227 229 230 231 232 234 235 235 234 233 234 236 237 240 243 245 246 246 245 244 240 238 237 238 237 234 229 224 218 212 207 203 200 196 192 189 188 187 186 185 188 191 195 198 197 195 196 198 199 200 200 199 195 193 193 194 193 193 194 194 196 196 197 199 198 200 202 205 210 214 214 214 212 214 216 218 222 229 235 241 241 241 235 231 227 224 223 224 223 220 218 218 218 217 215 214 212 208 205 204 205 205 205 205 203 201 199 198 197 197 196 195 193 190 186 182 176 172 166 165 165 167 170 172 174 176 177 177 178 180 181 182 182 180 180 181 181 182 180 178 177 176 176 176 174 172 171 169 167 166 165 166 167 169 170 171 172 174 174 173 173 172 173 173 175 177 178 177 175 174 173 172
171 172 173 173 172 173 174 176 177 178 178 177 178 179 180 181 182 182 181 179 176 175 175 177 181 182 182 180 179 177 177 177 177 177 177 177 177 178 178 179 178 176 173 171 170 170 171 172 171 172 172 171 171 170 172 175 178 179 179 180 181 181 185 189 194 201 207 213 216 218 221 223 223 223 224 226 227 228 228 228 228 227 227 227 226 227 231 232 235 236 238 237 238 238 240 241 241 241 242 243 244 243 241 240 235 233 231 230 230 226 223 218 211 205 200 196 191 187 186 185 184 182 181 180 180 183 185 187 187 189 192 195 195 196 194 193 190 187 186 186 187 187 188 188 189 188 188 188 188 189 190 192 197 202 202 202 204 206 209 209 214 220 226 232 237 239 238 236 230 226 224 223 222 220 218 218 219 219 218 216 214 211 209 208 209 209 210 210 208 205 203 200 198 198 198 197 195 192 188 184 177 172 166 165 167 170 172 172 174 175 177 177 178 180 181 181 182 181 182 182 183 184 182 180 177 177 178 177 175 173 171 170 167 165 164 165 168 169 171 172 174 176 176 175 173 171 172 174 177 179 180 180 179 177 175 174
169 169 170 171 173 172 172 174 175 175 175 175 176 177 179 180 180 181 180 178 176 175 177 179 180 181 181 180 180 179 178 178 177 178 178 178 179 179 179 179 177 174 171 170 171 172 172 172 171 170 170 170 171 171 175 179 179 180 180 180 183 184 187 190 195 202 210 216 219 221 224 225 226 225 225 225 227 228 229 229 230 230 230 229 227 227 231 234 236 238 239 238 241 241 240 239 237 235 235 237 239 238 235 233 230 226 223 222 221 218 216 211 206 199 194 190 185 180 180 179 180 178 177 176 174 175 177 177 179 183 188 191 192 191 189 187 185 182 180 180 182 182 183 183 183 181 181 182 181 180 181 183 185 188 190 193 196 200 202 202 206 212 217 222 228 233 236 237 233 229 225 223 222 220 219 220 219 220 219 217 216 213 213 212 212 212 213 212 210 207 205 203 199 199 199 197 195 192 188 183 177 171 166 168 170 173 173 173 174 175 176 178 179 179 180 181 182 183 182 181 182 184 182 179 177 178 180 179 177 174 173 171 168 165 163 164 167 169 170 172 174 176 176 175 172 170 172 175 177 180 182 182 179 177 175 173
171 171 172 173 174 173 173 173 174 174 174 174 175 176 178 179 179 179 179 177 177 176 178 181 182 183 183 182 181 179 178 179 177 178 178 179 179 179 178 178 175 173 171 171 172 173 172 170 171 169 169 170 171 172 177 182 182 184 182 183 186 186 188 192 196 203 210 216 220 222 224 226 227 225 225 225 226 227 228 229 230 231 232 231 229 228 231 233 239 241 241 241 243 243 240 238 232 230 232 234 232 231 229 227 224 219 216 214 213 211 209 205 201 193 189 185 180 175 173 174 174 172 170 168 169 169 169 170 172 177 182 185 186 185 182 180 178 176 175 175 177 177 178 178 177 176 176 177 176 175 175 175 176 177 181 186 189 194 196 196 199 205 210 215 221 226 231 234 234 231 227 224 223 221 221 221 221 223 222 221 219 217 217 218 218 216 215 214 213 210 208 206 201 199 197 195 194 191 187 182 176 171 168 170 171 174 174 173 174 174 177 179 180 179 180 181 183 183 181 180 181 183 181 179 177 179 182 181 178 176 175 173 170 166 164 163 164 167 169 171 173 174 175 175 172 170 172 175 177 181 183 183 182 179 176 175
173 175 177 177 177 176 176 174 175 176 177 178 177 178 178 179 179 180 178 175 176 177 180 183 184 185 185 184 182 181 180 179 179 180 180 180 179 178 177 177 174 173 172 173 175 173 171 171 169 167 167 167 172 176 180 185 187 186 184 186 188 190 192 194 197 201 209 217 219 222 224 227 228 229 230 229 228 228 230 230 231 231 232 232 232 232 233 237 240 244 246 245 243 241 238 233 229 228 227 227 228 225 224 221 218 215 209 204 204 203 200 198 194 190 184 178 176 172 170 171 170 167 166 166 165 164 162 162 167 172 175 178 180 179 177 176 173 171 170 170 171 172 174 174 173 173 172 172 172 171 171 171 170 172 175 180 186 189 190 192 194 197 202 207 215 222 227 230 231 232 229 227 225 224 224 224 223 223 223 223 222 222 222 223 221 221 219 216 214 213 213 210 204 198 196 194 193 192 187 182 177 172 171 173 175 176 175 173 173 176 179 180 181 182 182 182 183 183 182 181 182 183 182 181 180 181 182 181 178 177 175 174 172 168 165 165 164 164 167 169 170 173 175 175 173 171 173 175 178 181 182 183 181 180 178 177
176 178 180 180 178 177 177 175 176 176 178 179 178 178 178 178 177 177 176 174 176 177 181 184 186 187 186 185 185 183 181 180 181 182 181 180 179 178 176 175 173 173 174 175 175 173 170 168 166 164 165 168 173 179 183 187 188 187 186 188 190 193 194 197 199 203 207 213 218 222 224 227 231 232 232 232 230 230 229 228 229 231 233 234 234 234 237 239 243 247 246 242 241 237 232 227 224 223 222 223 223 220 218 215 212 207 200 197 195 195 192 191 187 184 180 174 171 169 168 168 165 163 161 160 160 158 155 153 158 165 169 172 173 172 171 170 168 166 165 164 167 167 169 169 169 169 168 168 168 167 166 166 165 167 172 177 181 185 186 188 190 192 196 200 207 214 220 226 229 231 232 231 230 228 227 226 225 225 226 227 227 226 227 227 225 224 222 218 216 215 214 211 205 200 196 194 193 190 185 180 176 174 174 176 177 177 176 174 174 177 180 182 182 183 183 182 183 184 183 182 183 184 183 181 180 181 181 181 179 177 174 173 171 168 168 167 165 163 164 166 169 172 175 175 174 171 171 174 178 180 181 183 183 181 180 179
177 179 181 181 178 177 177 175 175 176 176 176 176 175 175 174 174 174 174 174 176 178 182 186 188 188 187 185 186 184 182 180 182 182 180 179 177 176 174 173 171 172 172 172 172 170 168 166 164 164 168 172 176 183 185 188 189 189 189 190 193 195 197 200 203 206 209 213 217 222 224 228 231 232 232 232 232 231 229 228 228 230 233 234 236 238 240 242 244 244 240 236 235 231 225 220 218 217 217 217 216 213 210 207 204 198 192 189 189 189 188 187 183 179 176 171 169 167 165 164 163 161 157 155 155 153 149 147 151 157 161 165 166 166 165 166 165 162 160 160 161 163 162 162 162 163 163 163 163 162 163 163 162 165 169 173 177 181 183 185 187 192 195 198 203 209 215 221 224 228 231 232 232 229 229 229 230 231 231 232 231 230 231 232 231 228 226 222 218 216 215 211 205 201 197 194 192 188 183 179 176 175 175 176 177 176 175 175 175 177 180 182 182 183 182 181 181 182 182 181 182 183 183 181 180 179 179 178 177 176 174 173 172 170 169 169 167 164 163 164 167 171 173 175 173 172 172 173 176 178 179 181 182 181 180 179
176 178 180 181 178 177 177 175 175 175 174 173 172 172 171 171 171 172 173 175 176 178 183 186 188 188 187 185 187 185 182 180 181 180 179 177 176 174 171 170 170 171 170 169 169 169 167 165 164 167 172 175 180 185 187 188 190 190 190 192 197 200 201 204 205 208 211 215 217 222 224 228 229 231 231 230 232 231 230 229 229 230 232 233 237 239 242 243 241 237 233 230 227 223 218 213 210 209 209 210 209 205 203 199 195 189 185 182 183 184 181 179 176 174 171 167 166 164 161 159 159 158 154 151 150 147 144 143 145 150 154 156 159 159 160 160 160 157 154 154 156 155 156 155 153 154 155 155 156 157 158 159 159 162 165 167 172 175 178 180 185 191 195 198 200 205 211 217 221 224 228 231 234 233 233 233 233 234 236 236 236 235 235 236 234 231 228 223 220 217 215 210 206 202 198 193 190 186 183 181 180 178 176 176 176 175 173 173 174 177 180 182 181 181 180 179 178 180 180 180 182 183 182 181 179 178 177 176 175 175 174 174 173 171 170 170 169 165 165 165 165 169 172 173 173 173 173 173 175 177 177 179 180 180 179 178
174 177 179 179 176 175 176 174 174 172 171 170 169 169 169 169 168 169 171 174 176 177 181 185 188 186 185 185 184 183 181 180 179 178 176 176 173 173 172 172 171 169 168 168 169 168 167 167 166 170 175 179 183 186 188 190 190 190 193 197 199 203 204 204 206 208 210 214 218 223 225 227 228 229 230 229 232 231 231 231 230 230 231 234 237 239 239 237 234 232 227 222 219 213 209 206 204 205 207 205 203 198 197 193 187 181 177 175 177 176 174 172 170 170 168 163 161 158 156 156 154 152 151 150 147 144 141 139 139 143 148 150 151 153 154 154 153 150 148 149 150 150 148 147 146 147 146 147 150 151 152 154 156 158 161 163 165 168 173 178 183 189 193 197 199 202 206 212 217 219 223 230 234 236 236 237 237 238 240 241 239 237 237 237 235 232 228 223 220 216 214 210 205 201 196 192 190 186 186 187 185 182 178 175 174 172 173 173 174 178 179 178 178 178 177 176 176 176 177 179 180 181 180 179 177 176 174 173 173 171 171 172 173 171 170 170 170 168 167 166 166 166 168 171 172 172 173 174 174 173 174 176 177 177 176 175
174 176 176 175 175 174 174 173 173 172 170 169 168 168 168 168 168 168 169 170 173 175 180 184 185 184 184 184 185 183 181 179 178 176 175 174 174 174 174 174 171 168 167 167 168 168 168 169 169 174 178 181 184 187 189 190 191 192 195 198 203 205 207 206 208 207 209 214 219 223 225 228 227 229 230 231 233 233 232 232 232 230 232 234 235 235 234 231 229 226 219 214 211 206 203 199 197 199 201 200 198 194 191 185 178 172 170 168 168 168 166 164 165 164 162 158 156 153 151 152 150 150 148 147 145 141 136 134 133 136 141 144 146 147 148 147 146 143 142 142 144 143 141 140 140 140 140 140 142 144 148 149 152 153 157 158 160 162 167 174 179 186 191 195 196 199 204 209 213 214 218 225 233 239 240 240 241 242 243 242 241 238 237 237 235 233 228 224 220 216 213 209 204 199 195 192 191 189 190 190 189 186 182 177 172 170 171 171 174 176 177 176 176 176 175 173 173 175 178 180 181 181 180 178 176 173 172 171 171 170 169 169 170 171 172 172 172 171 170 170 169 167 167 169 170 171 174 175 175 173 172 173 174 176 176 175
172 172 173 173 174 173 173 173 172 170 168 168 168 168 168 168 169 168 168 169 171 173 177 180 181 180 181 183 184 182 179 177 176 176 176 176 176 175 174 173 169 167 166 166 168 169 170 171 174 179 182 184 186 188 190 190 192 195 198 201 205 207 207 206 208 207 209 214 219 223 225 227 227 228 230 232 234 234 235 236 236 235 233 230 230 228 226 224 222 220 213 208 204 200 197 194 193 193 195 193 190 188 185 178 171 165 162 160 161 161 161 159 157 155 153 150 148 146 145 146 146 146 145 144 141 137 132 129 129 131 134 138 142 142 142 141 139 137 137 137 138 136 136 136 134 134 133 133 135 138 142 144 146 148 150 152 155 156 162 168 174 181 187 191 192 195 199 204 208 210 213 220 225 234 239 241 245 246 245 243 242 239 237 237 235 232 228 224 220 216 214 210 204 198 196 193 193 193 193 194 192 188 183 178 172 170 171 171 173 175 174 173 174 175 174 172 171 174 178 180 180 180 179 177 174 171 171 172 172 171 168 167 167 168 170 172 172 172 172 173 172 169 169 168 169 170 173 175 176 174 172 171 172 173 173 173
170 170 171 172 171 170 170 169 170 169 167 166 166 166 166 166 166 165 166 167 169 172 174 176 178 178 179 181 183 181 177 175 175 176 178 179 177 175 173 171 168 166 165 165 167 169 171 172 176 182 184 186 187 189 191 191 193 196 200 203 205 207 207 205 206 208 210 214 218 223 224 227 224 224 227 230 234 236 238 240 240 240 234 227 221 220 218 217 215 213 208 203 198 194 191 189 187 187 187 185 182 180 178 171 167 160 155 152 153 153 152 151 149 146 144 141 139 137 137 137 139 141 140 137 134 131 127 124 123 124 128 132 136 137 136 135 134 132 132 132 131 131 131 133 129 128 126 126 129 132 134 136 139 141 143 144 148 151 156 160 167 174 180 184 186 189 193 199 202 204 207 214 218 227 235 241 245 247 244 242 241 239 238 237 234 232 228 224 221 217 215 211 204 199 197 195 195 195 194 194 192 188 183 178 173 171 172 172 173 174 173 171 171 171 170 169 170 173 177 179 179 179 178 175 172 170 171 174 175 173 170 168 166 167 168 169 170 170 171 174 174 171 170 169 169 170 172 174 176 176 174 172 172 172 171 170
166 168 169 170 168 167 167 167 168 167 165 164 163 165 165 165 166 164 164 164 166 167 170 172 173 175 176 177 178 178 177 173 173 175 177 178 177 174 172 172 170 165 163 163 166 170 172 174 178 184 187 188 189 191 193 193 197 201 203 205 206 208 206 204 204 207 212 216 219 222 224 225 223 223 224 229 232 238 240 242 241 239 233 227 218 212 210 210 209 205 201 196 192 189 186 183 181 181 181 180 176 173 171 167 159 152 147 144 145 145 144 143 140 136 135 133 129 126 126 130 132 134 132 130 129 126 124 118 117 118 122 127 130 131 132 132 130 127 125 125 126 127 127 128 124 123 122 121 123 125 130 132 133 136 138 140 144 148 150 154 160 167 173 178 180 184 188 193 197 200 203 206 210 218 225 232 240 243 244 242 242 240 239 239 236 231 228 224 222 219 214 208 202 199 198 198 197 196 195 195 192 187 182 176 174 173 172 170 171 171 169 167 166 166 166 167 170 173 175 176 177 176 175 171 169 170 173 174 175 172 169 168 167 165 165 167 167 168 170 172 173 172 171 171 169 169 171 174 176 176 175 172 172 171 169 167
162 164 167 168 166 166 165 164 165 164 164 163 165 167 167 167 165 165 165 165 164 163 164 167 169 171 172 173 175 176 175 171 171 173 177 177 177 174 172 171 168 165 163 163 166 171 175 178 180 184 188 189 190 190 193 195 199 203 205 207 208 208 206 202 203 208 214 217 221 222 223 223 224 224 224 227 233 239 241 242 239 235 230 223 214 205 203 203 201 198 195 190 188 184 181 178 175 174 175 174 170 166 163 160 154 146 140 136 137 137 136 134 130 126 126 124 120 117 117 119 122 124 124 122 125 123 121 113 111 112 116 120 123 125 126 126 125 122 120 120 122 123 123 124 121 120 118 117 116 119 121 124 125 128 130 135 138 143 146 148 152 159 165 170 175 178 183 187 191 193 194 197 201 208 215 223 231 238 242 243 242 241 240 240 237 233 227 223 222 218 213 208 202 200 200 198 198 196 195 195 191 186 180 176 174 173 172 170 169 169 168 166 164 162 163 166 169 171 173 174 173 173 171 168 167 168 172 174 173 172 170 169 167 165 163 163 164 165 169 171 172 173 173 172 170 169 170 173 175 175 174 173 173 171 168 165
161 163 165 165 165 165 165 165 164 165 165 165 168 169 170 169 167 168 169 168 168 165 164 164 167 169 171 170 172 173 172 169 170 172 174 174 174 173 171 170 169 165 165 165 168 174 177 180 182 184 187 189 191 192 195 198 201 205 207 209 210 210 207 204 205 209 214 218 221 221 222 223 225 226 226 228 234 239 238 237 234 229 224 219 212 202 197 197 194 192 190 187 185 181 178 175 171 170 169 168 164 160 157 153 149 140 134 131 131 131 127 125 123 122 121 118 113 111 110 110 115 116 117 118 120 119 116 108 106 108 112 116 118 121 122 122 120 118 118 119 119 120 120 121 119 118 117 116 116 116 118 119 121 124 126 130 134 139 142 144 147 154 160 166 170 173 178 182 186 188 190 193 196 202 209 216 225 233 241 243 243 243 242 242 240 236 231 225 221 217 213 208 205 204 202 200 199 197 196 195 190 185 180 177 175 175 174 173 172 169 167 166 164 164 164 167 170 172 173 173 172 171 169 166 165 166 169 171 171 170 170 170 169 167 165 164 165 166 169 171 173 175 174 172 170 169 170 173 174 173 174 174 174 172 169 167
163 164 164 164 164 165 166 168 166 166 167 168 169 171 171 171 169 171 172 171 172 170 167 164 164 167 168 167 169 171 170 169 170 171 172 171 171 172 171 170 170 168 166 167 170 175 179 181 182 184 186 188 191 195 198 199 201 205 208 210 210 211 209 206 206 209 214 218 220 220 222 224 225 228 229 230 234 239 236 232 230 225 220 216 208 199 193 190 189 188 187 183 181 177 175 171 169 165 164 161 159 154 151 146 142 135 130 127 126 124 120 117 115 115 114 111 109 107 105 105 106 107 110 112 113 113 109 101 102 103 108 112 113 116 118 119 114 114 116 117 115 116 116 117 114 115 115 115 116 115 116 118 119 121 123 125 129 134 136 139 143 151 156 161 164 168 172 177 181 184 187 190 193 198 205 213 221 228 236 240 244 245 244 243 241 239 235 229 224 220 216 212 208 206 204 201 200 197 196 194 190 185 182 179 176 177 178 177 176 171 168 167 167 168 167 167 169 171 172 172 171 171 169 166 164 164 166 169 170 170 170 171 171 170 168 166 165 166 168 170 174 176 174 172 169 169 171 173 173 172 173 174 174 173 171 169
165 163 163 163 163 165 168 169 169 169 170 171 171 171 172 172 171 172 173 174 173 171 169 165 162 163 165 166 167 168 168 167 168 169 171 171 171 171 171 171 169 167 168 171 173 177 181 182 183 184 186 190 193 196 200 202 203 206 208 209 210 210 209 207 207 210 212 215 218 220 224 227 227 229 231 234 234 234 233 227 225 222 217 212 204 195 189 184 183 183 181 178 176 173 171 169 165 161 158 157 154 149 145 143 137 132 128 123 119 116 114 111 109 108 106 104 105 103 102 101 101 101 103 105 106 106 102 98 97 101 105 108 109 112 113 113 112 110 110 112 112 111 112 113 112 114 114 114 114 113 114 115 117 119 120 123 126 130 133 136 140 147 154 158 161 164 168 173 177 180 181 185 191 196 202 210 218 225 232 239 243 246 246 245 244 241 237 231 227 222 219 216 212 208 205 204 201 200 198 195 191 185 181 178 177 178 177 176 176 173 169 168 168 170 170 169 170 172 172 172 172 171 168 167 165 163 165 168 170 171 172 172 173 172 170 168 165 164 166 169 171 173 172 170 169 170 172 172 172 173 174 174 174 173 172 171
166 164 162 162 163 164 166 168 169 170 172 173 173 172 172 172 172 172 173 174 174 172 170 166 162 161 162 166 166 167 167 166 167 169 169 169 169 170 170 170 169 169 171 174 177 180 182 182 183 187 191 195 196 198 201 202 204 206 207 207 208 209 208 206 206 209 212 215 218 222 226 229 230 232 235 236 233 230 227 224 221 218 213 207 200 191 186 180 176 176 173 170 170 168 166 163 160 156 153 151 148 144 140 137 132 129 124 117 114 110 108 105 101 101 99 98 98 97 96 95 93 93 96 97 99 99 97 94 93 96 100 102 104 105 107 107 106 105 105 105 106 106 107 109 110 112 113 113 111 111 112 114 117 119 120 122 126 129 130 134 138 145 151 155 158 161 166 170 173 176 178 183 190 195 201 209 216 223 230 237 241 245 247 247 244 242 238 233 229 225 221 218 215 209 206 204 202 201 199 195 190 184 180 178 177 178 176 175 175 173 171 170 170 170 170 170 170 172 172 172 172 172 170 168 166 164 165 168 169 171 172 172 173 172 170 168 165 164 165 167 168 170 170 169 167 169 172 172 172 172 172 173 174 174 172 172
166 164 163 163 164 165 166 167 169 170 172 173 174 173 172 172 172 173 174 174 173 171 169 165 162 161 162 164 165 166 166 165 166 167 167 166 167 168 169 169 170 172 175 177 181 183 184 184 186 191 195 199 200 200 202 203 204 206 205 205 206 207 206 205 205 209 213 218 221 224 228 231 233 235 236 235 230 227 224 221 219 214 209 203 194 187 181 174 171 169 167 164 165 164 162 157 155 152 148 147 144 139 136 133 127 125 118 112 109 106 102 99 96 96 95 94 92 91 89 88 88 88 89 90 93 94 93 91 90 92 95 96 98 98 101 102 102 101 101 101 103 103 105 106 106 109 110 111 109 109 111 113 116 118 119 121 125 128 130 134 136 141 147 152 155 159 163 168 170 174 176 181 188 194 200 208 216 223 230 236 240 244 247 247 243 241 238 234 231 227 223 219 215 210 207 205 204 202 199 195 191 186 182 178 178 178 177 175 174 173 173 172 171 170 170 170 170 172 172 172 172 173 171 169 167 166 166 167 169 171 171 171 173 172 170 167 165 163 164 165 166 168 169 169 167 169 171 171 171 171 170 171 172 173 172 171
166 165 165 166 165 166 167 168 170 172 174 176 175 174 172 172 172 173 174 175 172 170 168 164 162 162 163 162 166 166 166 166 166 167 166 165 166 166 168 169 171 173 177 179 183 185 186 186 188 194 197 200 202 202 203 203 204 205 204 203 205 206 206 205 206 211 216 220 224 226 229 231 234 236 235 232 228 226 224 219 215 210 204 198 191 184 178 170 167 164 161 159 160 159 157 152 148 146 144 144 140 135 132 129 122 117 112 108 104 100 97 93 92 93 92 91 89 88 86 86 88 87 88 89 89 90 89 86 86 88 89 90 92 92 94 96 98 98 97 96 99 99 101 103 104 106 108 109 108 109 111 113 115 117 118 121 124 128 131 135 135 140 146 151 154 158 162 167 170 174 177 182 186 192 199 207 213 221 228 234 239 244 247 247 245 242 240 237 234 231 227 222 217 213 211 209 204 202 199 196 193 188 184 180 179 179 178 176 173 173 174 173 171 169 169 170 170 172 172 172 172 172 172 170 169 167 166 167 169 170 171 171 172 171 169 166 165 163 163 164 166 167 169 170 169 169 170 170 171 170 169 170 170 171 171 170
170 167 165 166 167 167 168 168 169 172 174 176 176 176 175 173 172 173 173 174 173 170 168 165 164 164 164 163 166 168 168 168 166 166 166 164 166 166 168 169 172 176 178 181 183 186 186 189 190 195 200 203 203 204 204 204 204 205 205 204 206 206 206 206 207 213 218 223 227 230 231 232 237 236 232 228 227 226 223 218 213 208 203 195 188 180 174 168 162 157 155 153 154 154 151 147 143 141 141 140 136 132 128 123 119 114 109 105 100 95 93 90 91 91 89 87 85 83 82 83 84 86 87 87 85 85 85 82 82 81 82 83 84 86 88 90 93 93 94 94 96 96 98 100 101 104 106 106 107 107 109 111 113 115 118 123 123 127 129 132 134 138 144 149 154 158 162 165 169 174 177 182 186 190 198 205 212 220 227 234 240 244 248 246 245 245 243 240 237 233 229 224 219 215 212 209 206 204 202 199 194 190 186 183 181 180 179 177 175 175 174 173 173 172 170 168 169 171 171 170 171 171 171 170 169 166 166 167 169 170 171 171 170 169 167 164 163 162 162 163 165 168 169 169 169 168 168 169 169 169 170 170 170 170 170 170
171 169 166 166 166 167 168 168 168 171 173 175 177 178 177 174 173 173 174 174 173 170 168 165 164 164 164 165 167 168 168 167 166 167 166 165 165 165 167 169 172 176 179 181 183 186 188 191 193 197 202 204 204 203 202 203 204 205 207 207 207 207 206 206 208 214 219 223 229 232 233 236 239 236 230 225 223 222 220 216 211 206 201 193 185 176 171 165 159 153 150 147 148 147 145 141 139 137 137 137 133 130 126 121 115 110 105 99 95 91 89 87 87 87 84 82 79 77 76 77 79 82 84 84 82 82 81 78 77 75 73 74 76 79 82 84 86 88 91 92 92 93 95 97 98 100 102 102 103 103 106 108 111 114 117 120 123 125 127 129 133 137 140 145 150 157 162 166 169 174 177 181 184 188 196 203 211 218 224 232 238 243 247 246 245 245 243 240 238 234 229 224 220 215 213 210 208 205 204 201 196 192 188 185 182 180 180 177 176 175 175 174 174 170 168 167 168 168 168 169 172 172 172 170 167 166 165 166 168 170 171 171 169 167 165 163 162 161 161 162 163 165 166 167 166 166 167 168 168 168 169 169 170 170 170 170
170 169 167 167 166 167 168 170 171 171 172 174 177 179 178 175 173 174 174 175 172 169 168 166 165 164 165 167 170 170 169 167 166 167 166 165 164 164 166 168 172 176 178 181 182 186 189 192 196 198 202 204 203 201 202 203 205 207 209 210 209 209 208 207 209 215 218 223 229 232 235 238 239 234 226 221 220 218 216 214 211 205 199 191 181 173 167 161 156 151 147 142 142 143 140 137 134 133 134 134 131 127 123 118 113 106 100 94 91 88 87 86 85 84 81 79 74 70 70 72 74 77 79 80 78 77 76 73 71 68 65 65 68 72 76 79 81 83 87 89 89 92 94 95 95 98 100 100 99 99 103 107 110 114 115 117 121 124 126 129 132 136 139 143 149 155 160 164 169 173 175 177 181 186 193 201 210 216 222 229 234 239 244 244 244 244 242 240 237 234 229 224 221 216 213 211 209 207 205 202 197 193 189 186 184 181 180 178 177 176 175 174 173 169 168 168 167 167 167 168 171 172 172 169 167 167 167 168 169 169 170 169 167 165 163 162 161 161 162 163 162 162 162 164 164 164 165 167 168 169 169 170 170 170 170 169
168 168 168 168 167 168 169 171 173 172 171 173 177 180 179 175 173 174 174 175 171 169 169 166 166 165 166 169 173 172 170 167 167 167 167 165 164 164 165 167 171 175 178 180 181 185 189 193 196 199 202 203 202 200 202 203 208 210 211 211 211 210 209 208 209 214 218 222 227 231 234 239 238 232 224 218 217 215 214 212 207 201 195 187 176 168 162 156 150 147 143 138 137 138 136 133 130 129 130 130 126 123 119 114 109 103 95 89 85 83 84 83 81 80 77 74 69 65 65 67 67 71 73 74 72 71 69 66 64 61 59 59 61 66 71 74 76 78 81 83 85 88 91 91 92 95 96 97 94 94 98 103 107 111 111 113 116 120 123 126 128 133 136 139 144 150 155 159 165 170 171 173 177 184 192 200 206 212 218 225 229 233 240 241 243 243 240 239 236 233 228 224 221 217 214 212 209 207 205 202 197 193 189 186 184 182 180 178 178 177 175 173 171 169 168 170 169 167 167 168 170 172 170 168 168 168 171 171 170 170 169 168 166 163 162 162 163 163 164 164 162 161 161 162 162 163 164 166 166 167 167 169 169 169 169 168
167 168 168 167 168 168 170 172 173 172 171 173 177 179 178 175 172 174 175 175 172 169 167 167 167 167 167 170 173 174 172 168 167 169 168 167 164 164 165 169 171 174 176 180 182 185 189 192 195 198 201 200 200 201 204 207 210 212 212 212 212 211 210 210 211 215 220 224 228 231 235 238 237 228 221 216 213 210 210 208 203 198 190 182 173 163 157 152 146 143 139 136 133 133 132 127 125 125 125 125 123 119 114 111 104 97 90 86 83 81 81 80 77 74 71 68 64 62 62 63 65 65 66 66 66 64 61 59 59 59 58 58 59 62 65 67 70 73 75 77 83 87 88 87 88 91 92 93 92 90 93 97 101 103 105 108 112 115 117 120 124 128 132 137 140 146 151 157 161 164 167 172 178 185 192 199 204 209 214 219 224 230 237 243 245 243 240 238 236 233 228 225 222 218 216 213 211 208 204 201 198 193 190 188 185 183 181 179 177 177 175 173 170 168 169 170 169 169 168 168 169 170 169 168 169 171 173 173 171 170 168 167 164 163 162 163 164 165 166 165 165 165 164 163 162 162 163 166 167 167 168 168 169 169 168 169
168 169 169 169 170 171 171 172 173 174 173 173 176 178 178 175 173 173 174 174 172 169 167 166 166 167 168 170 173 174 173 171 169 169 169 168 164 163 165 167 171 175 178 182 184 187 190 193 196 198 200 200 200 203 207 210 210 214 216 217 216 215 214 213 215 217 223 227 231 234 237 238 236 227 219 212 208 206 206 205 200 193 184 176 168 159 153 147 143 139 135 131 129 128 127 123 120 119 119 118 118 114 109 104 99 91 86 82 80 78 78 76 73 69 65 61 59 57 58 60 60 59 59 59 58 56 56 56 57 57 56 56 56 59 62 63 65 68 71 76 81 85 84 81 83 86 88 89 88 86 87 90 94 97 99 102 105 109 112 116 120 124 129 133 137 143 148 153 158 161 166 172 180 187 193 199 203 208 212 217 223 230 238 243 245 244 242 240 238 235 229 227 224 221 218 216 213 208 204 201 197 193 192 189 188 186 184 181 178 177 176 173 170 169 171 170 169 170 171 171 169 169 169 169 171 174 175 175 173 169 167 166 165 164 164 165 165 167 168 168 168 168 166 165 164 164 165 166 166 166 167 168 169 169 169 171
169 169 170 171 173 174 173 172 173 174 173 173 175 177 177 175 173 173 173 174 172 169 166 165 166 167 170 170 173 174 175 173 171 171 170 168 165 164 165 167 171 175 179 183 186 188 192 195 196 199 200 199 200 205 209 211 212 216 218 219 218 217 216 215 215 218 223 228 234 236 238 237 234 227 219 211 205 203 202 200 195 187 179 172 163 156 149 142 138 134 131 127 126 124 123 121 117 116 114 113 112 110 105 100 94 88 84 81 77 74 74 72 71 66 62 58 56 54 55 57 55 54 53 52 51 51 53 56 56 56 55 55 55 57 59 61 63 65 69 75 77 79 79 77 78 80 81 82 83 82 82 83 88 90 93 96 99 103 107 112 116 121 126 130 135 141 147 152 157 162 167 174 180 186 192 198 202 207 211 216 223 230 236 241 242 242 241 240 239 235 231 228 224 221 218 216 213 209 206 202 198 195 194 192 190 188 186 183 180 177 175 173 171 171 172 171 171 172 174 173 172 172 172 173 175 176 176 176 173 169 166 166 166 166 167 168 168 169 169 169 170 170 169 167 166 167 167 167 166 166 167 168 170 170 170 172
170 169 170 173 175 175 174 172 172 174 173 173 173 177 177 175 174 172 173 174 172 169 166 164 165 168 170 171 171 174 175 173 172 172 170 169 167 165 165 167 171 175 178 182 186 188 192 195 197 199 200 198 201 205 209 210 213 216 218 219 218 217 216 215 217 220 225 230 234 237 238 236 230 225 217 209 203 198 196 194 188 180 173 167 162 155 149 141 136 132 129 125 122 120 119 117 114 112 109 108 106 105 101 96 90 85 81 78 75 72 71 70 67 63 60 56 53 51 50 51 51 49 47 46 45 46 50 54 52 52 51 51 52 54 56 57 61 62 66 71 74 74 75 77 76 77 76 76 77 77 77 78 82 84 87 90 93 98 103 106 112 116 121 125 131 138 144 150 155 160 167 173 179 184 190 195 198 203 209 214 221 227 231 235 240 240 240 239 238 236 232 230 226 223 220 217 213 210 207 204 199 197 197 195 194 192 190 188 186 180 177 175 174 173 173 172 173 174 174 175 175 175 175 177 177 177 176 174 173 169 167 167 167 167 169 171 171 170 169 169 170 171 169 168 167 168 169 167 166 167 167 168 170 171 171 173
170 170 171 173 175 175 173 171 172 171 172 174 174 176 179 176 174 173 172 173 171 169 165 165 167 171 172 173 176 178 178 176 176 175 173 170 169 167 167 169 171 175 178 181 184 189 192 194 196 199 199 200 203 205 209 212 212 214 215 215 216 216 216 216 218 222 225 229 235 237 235 231 226 221 213 206 200 194 191 185 181 175 169 163 158 152 148 142 135 128 125 122 120 119 118 114 113 110 107 104 102 99 96 92 87 83 78 74 73 70 69 66 64 62 57 54 52 50 48 47 46 44 41 40 41 45 49 50 50 50 50 49 48 48 51 55 58 61 63 67 71 72 71 73 73 73 72 72 72 71 73 75 78 79 81 85 88 92 96 101 107 113 118 124 129 134 141 147 153 160 166 171 176 182 186 189 194 200 207 212 218 223 227 231 234 238 238 236 237 236 233 231 227 224 220 217 213 211 208 204 201 199 197 197 197 196 193 191 188 185 181 178 177 174 173 174 174 174 174 174 175 176 177 177 177 177 176 174 171 167 166 165 167 170 172 172 172 172 172 172 172 171 171 170 167 166 168 167 167 167 167 168 169 171 172 172
168 168 170 172 171 172 172 171 170 170 171 173 175 176 179 177 175 173 171 171 170 168 166 167 169 173 175 177 179 180 180 178 178 177 175 173 172 171 171 172 173 176 178 181 184 188 190 193 195 198 199 203 205 206 208 210 211 213 213 212 214 215 217 217 220 223 226 230 233 233 229 225 220 215 209 202 195 188 183 178 172 168 163 160 155 150 146 139 130 123 120 117 115 115 114 111 110 107 106 103 99 96 93 88 84 79 75 70 70 68 67 64 60 58 55 53 50 48 46 45 42 39 37 36 40 44 46 47 46 47 48 48 45 43 45 49 53 57 60 63 66 68 68 69 69 68 68 67 68 67 68 70 71 73 76 79 83 88 93 97 103 109 116 122 126 131 137 144 149 155 162 167 172 177 182 185 190 196 202 208 213 218 222 225 228 234 236 236 237 235 233 231 228 225 221 217 213 210 207 203 201 200 199 199 199 199 197 195 193 189 186 182 179 175 174 174 174 172 172 172 174 175 177 178 177 178 177 175 172 168 164 164 167 170 172 172 173 173 173 172 172 172 171 170 167 166 165 165 165 167 168 168 170 171 172 171
167 167 168 170 171 172 172 171 170 169 171 175 177 177 179 179 176 174 170 170 168 166 166 170 173 178 180 182 184 183 182 181 180 177 175 175 174 174 174 174 174 176 177 181 184 188 190 193 194 198 199 203 205 207 208 210 212 213 214 214 215 216 217 219 222 225 227 230 232 230 224 219 215 210 205 200 192 183 177 170 166 161 158 155 152 148 142 134 126 120 115 113 112 113 113 111 108 105 103 100 97 94 90 85 81 76 72 68 67 67 65 61 57 55 52 52 50 48 46 45 43 39 37 37 39 41 43 43 42 44 45 44 42 39 40 43 48 53 56 60 63 67 66 67 67 67 66 66 65 63 64 66 66 69 72 76 81 86 91 96 101 108 114 120 125 129 135 141 145 152 159 163 169 174 178 182 188 193 199 204 208 213 217 221 224 231 236 238 237 235 233 232 230 228 224 218 215 210 207 204 202 201 201 201 201 202 200 198 194 190 187 183 180 176 174 174 172 170 170 172 174 175 176 177 177 179 178 177 174 168 164 163 166 169 171 172 173 173 173 172 171 171 171 170 167 166 165 164 165 167 169 171 173 173 172 171
166 166 167 169 173 173 173 172 170 169 172 176 177 177 179 179 178 175 171 169 167 166 167 172 176 181 183 186 186 185 184 183 183 180 178 178 179 179 179 179 175 175 177 182 184 189 192 194 196 197 199 203 205 207 209 211 213 215 217 217 217 218 220 220 223 226 228 231 229 225 218 213 209 206 201 195 188 178 171 164 160 156 153 149 147 142 137 128 121 115 111 108 108 109 111 109 105 101 99 95 94 90 86 81 77 72 68 64 62 63 62 57 57 53 51 50 51 49 47 46 42 38 36 37 38 40 41 41 37 39 39 38 38 34 35 38 43 47 51 55 60 64 64 64 65 65 64 64 61 59 60 61 62 64 68 72 77 83 89 93 99 105 109 115 121 125 131 136 142 148 155 160 165 170 175 178 184 189 194 199 203 207 212 217 222 228 233 237 238 235 233 233 232 231 226 220 216 212 208 204 203 202 202 203 202 202 201 200 196 192 189 185 181 175 173 172 170 169 171 174 175 175 175 176 177 179 179 178 174 169 165 164 166 169 171 172 172 172 172 171 171 170 170 169 167 167 166 164 165 168 171 173 175 174 172 172
163 165 168 170 172 173 172 171 169 169 171 174 176 177 179 181 179 175 172 169 165 163 167 172 177 181 184 187 187 186 186 185 184 182 179 179 181 182 182 181 179 177 177 180 185 189 192 194 197 198 201 203 206 206 209 213 215 217 218 219 220 221 222 222 224 226 229 229 226 218 212 206 203 200 196 191 182 172 166 160 155 149 147 145 142 136 130 123 117 111 106 107 107 107 106 104 102 99 97 93 90 85 82 78 75 70 65 59 56 56 57 55 54 52 50 49 49 48 46 44 42 38 36 36 35 36 37 37 35 32 34 35 34 32 33 35 38 41 46 49 54 57 59 61 61 61 60 59 57 56 55 55 56 60 64 69 75 82 88 93 98 102 107 112 116 121 127 133 137 143 150 154 160 164 169 174 179 184 190 195 199 202 207 212 217 225 231 235 237 235 235 233 234 231 227 221 217 212 209 206 203 201 202 203 202 202 201 200 197 195 191 187 180 174 171 169 169 168 170 172 173 173 175 177 176 176 178 177 174 168 166 166 167 168 169 170 171 173 171 169 167 167 166 164 165 165 165 165 166 169 172 173 174 173 172 170
162 166 169 171 172 172 172 171 170 168 168 170 175 176 179 180 179 177 175 171 165 163 166 171 177 181 184 187 186 186 185 185 184 183 181 182 184 185 185 184 182 179 178 181 187 191 193 196 198 201 202 205 206 206 209 213 216 218 219 220 222 223 224 224 225 228 230 228 221 213 207 201 196 191 187 182 174 166 160 155 148 143 140 136 134 129 123 117 111 106 103 103 104 103 101 99 97 95 93 89 85 80 76 72 69 64 60 55 52 51 51 49 51 50 48 47 46 46 43 42 40 37 35 33 33 32 31 31 29 28 31 32 31 31 33 35 34 36 40 42 47 50 52 53 55 55 54 53 50 49 48 49 52 55 60 66 72 79 85 89 95 101 106 112 114 118 123 128 133 138 143 147 153 158 164 168 173 179 185 191 195 199 205 211 216 223 228 232 235 234 234 232 231 230 226 222 216 213 211 208 206 204 203 203 204 203 202 201 198 196 192 187 180 173 170 169 170 169 170 171 170 171 174 175 174 175 177 175 172 168 167 167 167 166 166 166 168 170 169 168 166 164 163 162 163 164 165 166 168 169 171 172 171 170 168 166
162 166 171 172 172 172 172 173 171 169 168 169 172 176 179 180 179 178 176 172 166 162 164 171 175 180 182 185 186 185 185 185 184 184 183 185 186 187 187 186 185 182 179 181 187 191 194 197 198 201 203 207 207 207 209 213 216 219 221 222 224 224 224 225 226 230 231 227 219 210 204 197 191 185 180 175 170 163 157 152 144 139 134 130 126 121 117 113 111 107 104 102 100 97 94 93 92 90 89 85 83 77 73 68 64 59 56 52 51 49 49 47 47 46 45 44 42 42 41 39 37 36 33 31 32 30 28 26 24 26 30 30 31 31 32 33 34 34 36 38 41 44 45 47 48 49 48 47 43 43 45 47 51 55 60 65 71 78 83 87 92 99 106 111 113 116 121 125 128 132 136 140 145 151 157 162 169 177 183 188 191 196 203 211 218 223 227 231 233 233 234 230 228 226 223 220 216 214 213 211 209 206 204 202 203 203 201 199 197 195 191 186 180 174 173 173 173 173 173 172 172 172 173 174 174 176 176 174 172 168 168 168 167 165 164 164 166 168 168 165 163 163 164 163 164 164 165 166 167 168 168 169 169 167 166 163
162 167 171 173 173 172 173 175 171 169 168 170 171 176 179 179 179 178 177 172 167 162 164 171 174 178 181 184 186 185 185 184 184 185 184 187 188 189 189 188 186 182 179 181 186 190 193 195 197 201 203 207 207 207 210 214 217 219 222 223 225 225 224 224 226 231 232 227 220 210 204 196 191 183 177 173 167 161 155 148 143 138 132 126 124 120 119 117 112 107 102 100 98 94 91 90 88 88 86 83 79 74 69 64 60 55 52 49 50 48 47 45 44 43 42 42 40 40 39 38 36 35 32 29 30 27 24 22 22 25 30 30 32 32 32 31 33 32 33 34 38 42 43 45 42 42 41 40 40 42 46 49 52 57 62 68 72 78 83 87 91 99 106 110 111 113 116 121 125 129 132 135 139 146 152 158 165 174 182 187 190 194 203 211 217 222 225 228 232 233 233 230 229 226 223 219 216 214 214 212 211 208 204 202 202 201 199 197 195 193 189 185 179 174 174 176 176 176 175 175 175 174 175 175 175 178 178 174 172 170 169 171 169 167 164 164 166 167 165 163 162 164 166 166 165 165 165 166 168 168 168 167 167 167 165 163
167 168 171 174 175 175 175 175 172 171 170 169 171 172 174 178 178 177 175 171 165 162 164 169 174 179 184 187 186 185 185 186 186 186 188 190 190 190 189 188 186 183 180 181 186 190 193 197 200 202 206 207 208 210 212 216 218 220 223 223 224 224 224 226 229 234 234 229 222 214 207 200 192 185 180 174 167 161 154 147 142 137 135 132 127 123 121 117 113 107 103 100 97 93 91 91 91 88 85 80 78 72 68 63 58 52 52 52 51 50 48 45 43 42 42 42 40 40 41 38 35 34 31 28 28 26 23 21 22 25 28 31 31 31 31 31 31 31 32 33 34 37 40 40 40 39 39 40 42 47 50 54 57 61 66 71 75 80 85 89 91 97 102 107 109 113 118 123 126 130 133 137 140 142 148 155 163 173 181 185 189 195 203 210 217 222 224 227 228 232 234 236 232 227 224 221 219 217 215 215 215 212 208 204 202 201 199 197 193 189 185 182 179 178 179 180 179 179 179 179 179 179 178 178 178 180 178 176 174 173 173 173 171 170 169 169 169 168 168 166 165 166 168 169 169 169 169 169 170 169 169 168 168 167 165 165
169 170 172 174 176 176 176 175 173 172 171 171 170 170 171 173 175 175 172 169 163 162 164 168 174 180 185 188 187 184 183 185 185 185 186 189 192 191 189 187 185 183 180 182 185 189 192 196 200 203 207 208 209 211 215 217 218 220 221 222 223 223 224 228 232 236 236 231 224 216 209 201 192 184 179 173 166 159 152 146 140 137 136 134 131 126 122 118 114 109 104 100 94 92 91 93 92 88 84 79 76 71 67 63 56 51 51 51 50 49 46 45 43 44 43 43 41 40 40 38 34 32 29 27 26 24 22 21 21 24 28 30 31 31 32 32 29 28 28 29 30 33 34 35 34 35 39 41 46 51 55 59 63 67 71 75 78 82 86 90 93 97 100 104 108 112 118 124 128 132 135 139 140 143 148 154 161 170 178 182 187 193 201 209 216 220 221 224 227 231 235 239 237 232 228 224 221 218 217 218 216 214 211 207 203 198 197 195 191 187 183 180 181 183 182 182 183 184 184 183 183 181 180 179 180 179 178 177 176 176 176 176 175 175 174 174 173 172 170 169 167 167 169 172 173 173 173 172 172 171 170 169 168 168 167 167
171 173 175 176 177 176 175 175 173 172 171 170 169 168 167 168 172 172 170 167 162 162 165 169 174 179 183 186 184 183 183 183 183 183 184 187 189 189 187 186 185 183 181 183 186 190 193 197 201 204 207 208 209 211 215 218 219 219 219 220 223 226 229 231 234 238 237 232 225 216 208 200 191 182 177 170 164 157 150 144 139 137 137 135 132 127 123 119 115 110 104 98 92 90 90 91 89 86 82 78 74 70 66 62 55 50 49 49 48 46 44 43 43 45 44 43 41 38 38 37 33 31 28 27 26 24 23 22 21 23 25 26 28 29 30 30 29 27 26 26 26 28 30 30 30 33 38 42 48 53 57 62 67 71 74 77 80 83 85 88 93 96 99 102 107 112 119 124 129 133 136 140 143 147 150 154 160 168 176 181 185 191 199 207 214 218 219 221 225 231 237 241 238 235 232 228 224 220 220 220 218 216 213 209 204 198 196 194 190 188 186 183 184 186 186 185 186 187 185 184 185 184 182 182 182 181 180 179 179 179 181 181 181 180 179 178 176 174 173 171 169 168 170 173 174 174 174 173 172 170 169 167 167 167 167 167
172 174 176 176 177 176 175 174 171 170 169 169 169 167 166 166 167 168 166 163 163 163 166 169 174 177 181 182 182 183 183 182 181 182 184 186 186 187 186 185 185 183 182 184 187 191 194 198 201 204 208 209 208 210 214 218 220 218 218 219 223 230 233 234 235 239 237 232 224 215 207 198 190 181 175 168 162 156 149 143 140 137 136 135 131 127 123 119 116 110 103 95 91 88 87 88 86 84 81 77 69 65 62 58 54 49 48 48 46 43 42 42 42 44 44 42 40 37 37 36 34 30 28 28 26 25 23 22 21 22 22 22 25 27 28 28 27 24 23 22 24 26 27 27 30 33 38 42 47 52 57 62 68 73 75 78 83 85 87 90 92 96 99 102 106 112 119 124 129 133 136 140 143 147 150 154 160 167 175 180 184 190 198 206 212 217 217 219 224 230 237 242 240 239 236 232 226 221 221 222 221 218 213 210 205 199 195 192 192 190 189 187 187 187 188 189 191 191 188 185 186 185 184 182 182 182 182 182 180 181 184 185 184 183 181 180 178 176 173 172 170 168 171 172 172 172 172 171 171 169 167 166 165 165 165 166
172 175 177 177 176 175 174 173 171 170 169 169 168 167 166 166 164 165 165 165 165 165 168 169 173 176 179 181 182 183 183 182 181 182 183 184 185 185 185 185 184 182 181 186 190 195 197 200 202 205 207 207 209 209 211 215 218 217 216 218 223 230 234 234 238 240 238 232 223 213 206 196 188 180 173 166 162 155 149 143 138 136 135 134 130 124 121 119 114 108 100 93 90 87 86 85 82 78 76 72 67 62 58 54 51 48 45 43 43 42 42 41 42 43 44 42 39 36 34 35 33 32 30 28 27 25 25 23 20 20 20 22 24 24 25 25 25 21 20 21 23 25 27 30 31 33 37 43 47 52 58 65 69 73 76 80 84 87 89 90 92 94 98 104 108 112 116 121 126 131 135 139 143 147 151 155 160 166 173 178 183 190 197 205 211 215 216 217 223 230 237 242 243 241 238 235 229 223 222 222 222 218 213 210 206 201 198 195 193 193 191 189 189 189 191 193 193 192 190 189 188 186 185 184 183 182 183 184 183 182 183 185 185 184 182 181 181 179 176 174 172 172 172 172 172 171 171 170 169 168 165 164 162 163 165 165
175 175 176 177 177 175 173 171 170 170 170 170 168 167 166 166 164 165 166 167 168 168 168 170 172 176 180 182 183 184 183 182 180 181 182 183 182 183 185 186 182 182 184 188 192 197 200 201 204 204 206 207 208 208 210 213 215 215 216 218 225 231 235 236 238 240 238 233 223 214 207 197 188 179 171 164 161 155 149 143 137 135 134 133 129 123 117 113 110 106 99 93 88 85 83 81 78 75 72 69 65 60 55 50 47 45 42 40 39 39 41 40 41 42 43 41 38 34 32 34 34 34 32 30 28 26 24 22 20 19 20 21 23 22 22 22 20 19 19 21 24 27 29 32 33 35 38 42 47 52 58 65 70 73 77 80 85 89 90 92 92 95 99 105 110 113 115 117 123 128 133 138 143 148 152 157 162 167 173 177 183 189 196 204 210 214 216 218 222 229 237 243 244 243 240 237 233 226 222 221 221 218 215 212 207 204 202 200 197 197 195 192 192 192 194 196 196 195 192 192 191 190 188 187 186 185 185 185 185 184 184 184 185 185 183 182 182 181 179 177 175 174 174 174 173 171 170 168 167 167 166 165 162 163 165 166
176 175 175 176 175 173 172 170 169 170 170 170 170 169 168 167 167 167 168 169 170 170 170 172 173 176 179 180 182 182 181 179 178 178 180 181 180 181 183 184 182 184 185 189 194 198 201 203 204 205 205 205 205 207 209 210 213 214 216 220 226 230 233 236 237 239 237 232 224 217 210 199 188 179 169 162 159 154 148 143 137 133 131 129 126 120 114 110 105 101 97 91 88 83 80 78 75 71 68 65 62 57 52 48 44 42 39 38 37 38 39 39 39 40 41 40 36 31 30 32 34 34 33 31 29 26 24 20 19 19 20 21 22 20 19 18 17 17 20 23 27 30 32 36 38 39 39 42 46 51 57 63 69 73 76 80 85 88 89 91 92 95 100 107 113 116 117 117 120 126 131 135 142 147 152 158 163 168 173 177 183 188 195 203 209 214 216 218 222 227 235 242 243 243 241 238 234 228 222 219 217 215 214 213 210 207 205 203 201 200 198 195 193 193 194 196 197 197 195 193 192 191 190 188 188 187 187 186 187 184 184 183 184 185 183 182 182 182 181 180 177 176 175 175 173 171 169 168 168 167 167 165 163 163 166 166
176 174 174 174 173 172 171 170 169 169 170 171 171 170 169 169 170 170 170 170 170 170 172 175 173 176 177 177 180 180 179 177 176 177 178 179 179 180 181 181 184 185 186 187 194 198 201 204 204 206 205 202 203 205 207 208 212 214 217 221 225 229 231 234 236 238 236 231 225 218 212 200 190 179 169 161 157 152 147 142 137 131 128 125 120 115 111 106 101 98 94 90 84 79 76 73 70 66 63 60 56 52 48 44 42 40 39 37 38 37 38 37 38 39 40 38 35 29 29 32 34 34 33 31 30 26 23 20 19 19 19 21 21 19 17 16 15 16 20 24 29 32 35 38 41 42 41 42 45 50 56 62 68 72 75 79 83 87 88 90 92 95 101 107 114 118 119 119 120 124 128 133 139 146 152 158 163 169 174 179 183 188 195 202 209 214 216 219 222 227 233 240 242 242 240 237 234 228 222 219 214 213 213 214 211 208 205 203 204 202 199 197 196 196 196 197 198 197 195 193 193 190 190 188 189 189 187 186 187 185 182 182 183 184 183 182 181 183 182 181 178 177 175 174 172 171 169 169 169 168 167 166 164 164 166 167
175 173 173 173 172 170 169 168 166 166 167 169 170 171 171 171 171 171 171 171 171 170 172 175 174 174 175 176 177 177 176 174 174 174 175 177 178 177 179 182 185 187 187 190 193 197 201 202 204 205 204 203 202 202 205 210 213 216 219 220 224 227 231 231 234 236 235 231 225 219 212 202 191 180 169 161 156 150 144 140 135 130 125 121 117 111 107 103 99 95 92 88 83 77 73 70 65 62 59 56 52 48 45 43 40 39 37 35 36 37 37 36 37 37 37 36 33 29 28 31 32 33 32 31 30 26 22 19 18 19 19 20 19 17 16 17 16 17 19 24 30 34 37 39 40 43 44 44 45 48 54 60 65 71 75 80 82 85 87 88 91 96 103 109 114 118 119 121 120 123 126 130 137 145 151 156 162 169 174 179 183 187 195 202 208 212 215 219 223 227 234 238 242 242 239 237 233 228 223 217 213 212 213 213 213 211 207 205 205 204 200 199 196 195 196 198 199 198 195 194 193 190 186 186 186 186 186 185 184 183 183 184 184 183 180 180 181 183 181 179 178 176 173 172 170 168 167 167 168 168 165 164 165 166 167 168
173 173 173 173 172 171 169 169 169 167 166 167 169 169 170 171 171 172 173 174 171 170 172 175 176 176 176 175 175 174 173 172 171 172 173 174 175 176 181 185 187 188 187 188 193 195 199 201 202 203 203 203 201 200 204 209 215 218 219 222 223 226 229 231 233 235 235 231 225 219 212 203 193 181 170 162 156 150 144 140 133 129 124 118 113 108 104 101 99 94 89 85 82 76 71 67 62 57 55 52 47 43 41 39 37 37 35 33 34 36 36 36 35 36 35 33 29 26 27 29 31 31 30 28 28 24 21 18 15 16 18 18 17 15 14 15 18 18 19 22 28 33 36 40 42 44 46 46 46 48 52 58 63 68 73 77 81 85 86 88 91 96 103 109 114 117 118 120 121 121 122 127 135 144 149 153 159 166 173 177 181 187 194 200 206 210 214 217 221 225 232 237 240 241 237 235 231 227 223 219 215 213 212 212 213 213 211 209 207 205 202 199 198 196 196 197 198 198 195 195 193 189 186 184 184 184 184 184 184 183 184 185 185 182 179 179 180 181 180 178 175 173 172 171 169 168 167 168 168 167 164 165 167 167 168 168
174 175 174 174 173 172 171 171 170 168 167 167 167 168 169 171 172 173 174 175 172 172 174 176 178 179 178 176 175 173 171 171 170 171 172 173 174 178 183 187 190 190 189 190 192 194 196 199 200 202 202 202 202 203 206 210 215 218 220 224 225 226 229 232 234 236 236 232 225 218 211 203 193 183 173 165 158 152 146 142 135 132 126 120 114 109 106 104 99 93 88 83 80 76 71 67 60 54 51 49 46 42 41 39 37 37 35 33 34 34 34 33 35 36 34 31 27 27 27 28 31 30 28 27 25 23 19 18 15 15 16 16 15 14 15 16 19 21 21 23 27 31 35 39 43 46 48 48 47 48 52 57 61 66 71 76 81 85 87 89 91 96 102 107 112 116 117 119 121 121 121 125 132 140 147 151 157 164 169 173 177 184 191 197 203 207 211 214 218 222 228 234 239 241 237 235 232 228 225 222 219 218 217 214 215 216 215 212 209 208 204 203 200 196 196 197 197 197 195 195 195 191 187 184 183 183 183 183 183 184 185 187 186 183 180 179 179 179 178 176 175 174 173 171 170 169 169 168 167 166 166 167 168 168 168 167
177 177 176 174 174 173 173 173 171 169 168 168 167 168 170 171 174 173 173 173 174 173 175 178 178 181 180 178 176 174 171 171 171 171 173 173 175 179 184 188 190 191 191 192 192 193 195 197 198 201 202 201 203 206 209 210 214 216 220 225 226 227 230 234 237 239 237 233 227 218 211 203 193 183 175 167 161 154 148 144 138 135 130 123 117 113 110 108 100 94 87 82 78 76 73 68 60 54 51 49 44 41 40 38 38 38 36 34 34 34 32 30 32 34 32 28 29 28 27 28 28 28 25 24 24 22 19 17 16 15 14 14 14 15 17 20 20 23 23 25 28 30 33 38 42 46 48 49 49 49 52 57 61 66 71 75 81 85 88 90 92 95 100 105 111 114 116 117 120 121 121 124 130 138 144 148 153 158 162 167 174 181 187 194 201 205 208 211 215 219 226 231 238 242 239 236 233 230 228 225 223 222 221 218 217 217 216 214 212 210 207 204 201 197 196 196 196 197 196 195 193 189 185 183 183 183 183 183 183 184 186 188 187 185 182 180 179 177 177 175 173 173 172 171 170 169 170 169 167 166 167 168 168 168 168 167
175 176 175 174 174 173 172 171 170 167 167 168 169 171 173 172 172 172 171 172 175 176 177 178 180 180 180 179 177 174 171 170 171 171 173 175 178 181 185 188 190 193 194 193 192 191 193 196 198 200 201 203 207 209 213 215 215 218 221 224 227 229 230 234 237 238 238 231 225 216 208 200 191 183 175 170 163 158 153 146 141 137 131 125 120 115 112 106 101 94 86 81 78 74 72 69 62 55 51 49 45 42 40 39 38 38 38 35 33 30 29 27 28 30 29 27 29 29 27 25 24 25 23 20 19 18 18 15 15 14 13 13 14 16 19 20 22 26 28 30 30 30 33 35 39 44 46 46 47 48 52 55 60 64 68 72 77 82 86 90 90 92 96 102 107 112 113 114 116 117 118 120 126 133 140 145 148 152 157 162 170 178 185 191 195 199 204 208 211 216 222 228 236 241 239 237 235 232 231 230 229 226 224 223 221 219 218 215 213 211 208 206 201 196 196 194 196 196 195 193 191 187 183 181 181 182 183 182 181 183 185 187 187 184 180 180 179 177 175 174 172 172 171 170 170 170 171 170 167 166 168 168 168 167 167 168
175 176 175 174 173 171 170 169 169 167 167 168 170 171 172 172 170 170 170 171 175 176 178 179 180 179 178 178 176 173 170 170 170 172 175 177 179 181 185 188 192 195 194 194 192 191 192 194 197 200 202 206 210 212 215 217 218 220 221 223 226 229 230 233 235 239 238 229 222 212 204 196 189 184 178 173 167 161 156 149 144 140 134 128 123 117 113 108 102 94 86 81 78 74 71 67 62 56 53 50 46 42 42 40 38 37 36 32 32 28 25 22 23 25 26 25 28 27 25 23 22 21 19 17 17 17 18 15 13 13 13 13 14 17 20 22 24 30 30 30 32 32 33 34 36 40 43 43 45 46 50 54 59 63 66 70 74 78 81 85 86 89 92 97 102 106 107 109 111 113 114 116 122 129 134 138 142 144 151 158 168 175 182 186 190 194 199 203 207 212 218 224 233 239 238 236 235 234 234 234 232 229 228 228 226 223 220 216 213 212 209 206 202 196 195 194 194 193 190 188 186 183 180 178 177 179 180 181 180 181 184 187 186 185 182 181 181 178 174 173 172 172 171 170 169 170 172 169 166 166 167 167 166 165 165 166
175 175 174 173 171 170 168 166 166 166 167 167 169 170 170 169 168 169 169 171 175 176 177 179 178 177 176 175 172 170 170 171 172 174 177 178 179 181 185 189 192 195 193 193 191 189 190 193 197 200 203 208 210 212 215 218 220 222 221 223 225 229 230 233 234 237 236 227 219 209 202 195 190 185 180 175 171 165 161 153 147 142 137 131 124 117 113 109 102 94 87 82 77 73 70 66 61 57 54 51 46 42 41 38 36 35 33 30 29 27 23 19 21 22 23 24 24 24 23 21 19 18 16 15 17 17 17 14 12 12 13 13 15 18 22 24 26 29 30 32 33 34 34 34 35 38 41 43 44 45 49 52 57 61 63 67 71 74 77 80 82 85 88 93 97 100 102 105 107 109 111 114 119 124 129 133 137 143 151 158 165 173 178 182 186 191 195 200 204 208 215 220 230 237 237 235 234 236 236 235 233 232 230 229 228 226 222 217 213 212 208 204 200 196 195 193 193 189 185 183 181 179 176 174 173 175 177 178 178 177 181 184 184 183 180 180 179 177 173 172 170 170 171 170 169 169 169 168 165 166 166 166 165 164 164 165
174 175 174 173 170 169 166 165 164 165 166 166 168 169 169 168 168 169 169 171 175 176 177 178 177 175 174 173 168 168 170 171 174 176 177 177 178 180 184 189 192 194 192 192 189 188 190 193 198 201 203 208 212 215 218 220 221 222 222 224 225 229 230 232 234 234 234 227 218 208 202 197 191 187 181 175 173 168 162 155 148 143 138 132 126 117 113 109 102 94 87 82 77 73 69 65 61 58 55 51 47 42 39 36 34 33 32 29 28 26 23 19 18 18 19 19 20 21 21 21 19 17 15 15 17 16 15 12 11 12 13 13 15 19 22 25 27 27 28 32 33 35 36 35 35 38 41 43 43 44 48 51 53 56 58 62 66 69 71 75 79 83 86 89 92 95 97 101 102 105 107 110 114 120 124 127 133 142 151 157 164 170 176 180 183 187 192 197 202 207 213 219 229 236 237 235 235 236 236 235 235 235 232 228 227 227 222 217 213 211 207 202 197 195 195 193 191 187 182 179 179 176 174 171 171 173 175 176 175 175 179 183 183 180 179 178 176 174 173 171 169 169 170 170 169 168 167 166 165 166 166 165 165 164 164 165
173 172 172 172 170 168 165 164 164 164 165 165 168 168 167 167 169 168 169 171 172 173 174 175 175 173 171 170 169 168 171 175 176 178 179 179 179 181 184 188 190 191 190 189 188 187 190 195 198 202 205 209 213 217 220 222 222 224 223 223 225 227 229 231 233 233 232 229 221 213 206 199 193 187 182 178 174 169 163 156 149 144 138 131 124 118 113 109 102 95 89 83 80 72 68 65 62 59 55 52 49 45 41 36 34 33 33 31 29 25 22 21 18 16 16 17 19 19 20 20 17 16 14 13 14 13 13 13 10 8 11 15 17 21 23 27 27 28 28 30 33 34 35 34 35 37 39 40 41 42 44 47 49 53 55 58 63 66 69 73 77 80 83 87 89 92 94 97 100 101 103 107 111 116 120 125 131 140 149 157 162 169 174 177 183 187 189 194 201 207 212 219 229 236 237 236 237 238 236 235 236 237 234 230 226 222 219 215 212 209 204 200 196 194 193 192 190 186 183 183 180 176 172 168 168 169 171 171 172 173 175 177 178 176 175 176 175 173 172 171 168 166 168 170 170 169 168 167 166 165 165 165 166 165 165 165
170 169 168 168 168 167 165 165 165 165 165 165 166 167 165 166 168 167 167 168 169 170 171 172 169 168 168 168 170 170 172 175 176 178 180 180 178 180 183 187 187 188 187 186 185 186 192 197 201 204 207 210 214 218 220 223 225 226 225 225 226 227 229 230 229 230 231 229 225 218 211 203 196 189 182 176 173 168 163 156 149 143 138 132 126 119 111 106 100 94 88 83 80 72 67 64 62 60 56 53 51 46 42 37 32 31 32 31 30 27 23 21 19 17 15 14 16 17 17 18 16 14 12 11 10 9 9 8 7 7 10 13 18 21 23 26 26 27 26 28 30 32 34 34 33 34 36 37 38 39 41 43 44 48 52 56 60 64 68 72 75 78 81 84 87 89 91 95 96 97 100 104 108 113 116 120 129 139 147 155 159 166 172 175 181 186 189 194 200 207 213 220 229 235 236 235 236 236 236 235 234 234 232 228 225 220 216 212 209 205 201 196 193 191 190 189 188 185 185 183 179 174 170 166 165 165 165 166 167 168 171 173 173 171 171 172 171 170 170 169 166 165 167 169 169 169 168 167 166 165 165 165 166 165 165 165
166 166 166 166 167 167 166 166 167 166 166 166 167 168 166 166 167 166 165 166 168 168 169 170 167 165 165 166 168 170 171 173 175 176 177 176 176 178 180 182 184 184 183 182 185 187 193 197 202 205 207 210 213 216 218 222 224 225 224 224 225 226 227 228 227 227 230 231 227 221 215 205 199 191 183 176 173 169 163 158 150 144 138 131 126 118 110 104 98 94 89 85 80 72 66 63 61 60 56 54 51 46 41 36 31 28 28 28 28 26 23 20 19 18 15 13 13 14 14 15 14 12 10 8 7 6 4 4 3 5 9 12 16 20 21 22 23 24 24 26 26 29 31 32 30 31 32 33 34 35 38 40 42 47 52 56 59 63 67 71 71 76 80 85 88 89 90 95 95 96 97 101 107 113 116 120 128 138 144 150 155 161 167 174 180 186 189 195 201 207 213 220 227 233 235 236 236 234 234 233 231 230 227 224 220 215 211 208 205 201 197 193 189 187 187 185 184 184 183 181 177 172 168 164 163 163 163 163 164 164 166 168 169 168 167 169 168 167 168 167 164 163 165 165 166 166 166 166 167 166 166 165 165 164 164 164
163 164 165 167 167 167 168 168 167 167 166 166 168 169 167 168 166 165 164 165 164 165 166 167 167 165 164 166 167 168 170 170 172 174 174 173 174 176 178 180 182 182 181 180 186 189 194 197 202 205 207 209 211 213 216 221 221 223 221 222 224 224 225 226 225 226 230 232 227 222 215 206 200 191 184 178 174 169 165 159 151 144 137 129 124 116 108 103 98 94 90 86 80 71 66 62 60 59 56 54 50 45 39 34 30 26 25 25 25 25 22 20 19 19 16 14 12 12 13 13 14 11 8 7 6 4 3 2 0 3 8 11 14 18 19 19 20 22 23 25 25 27 28 28 29 29 30 31 30 30 33 35 40 45 50 55 58 61 63 67 69 75 81 86 87 87 88 93 94 94 94 97 107 114 119 122 130 138 142 146 152 157 164 173 180 186 190 196 203 208 213 219 225 232 236 238 236 233 232 231 229 226 223 219 215 212 208 205 203 199 195 190 187 185 184 183 183 183 181 178 174 171 168 164 162 162 163 163 163 163 163 163 164 163 163 165 165 163 163 164 163 163 164 163 164 164 164 164 164 164 163 163 164 163 163 162
