9 9 9 9 9 9 9 9 9 10 10 10 9 9 9 9 9 9 10 10 10 9 10 11 11 12 13 13 13 13 14 14 14 15 15 15 14 14 14 15 15 14 13 13 13 12 12 12 12 12 12 12 13 14 15 16 17 18 19 20 21 23 24 25 26 27 28 30 31 32 33 35 37 38 39 40 41 42 43 45 46 47 49 50 52 53 54 56 57 60 61 64 65 65 69 72 75 76 80 79 80 81 82 81 85 89 95 98 104 113 118 123 127 128 126 133 138 146 148 150 152 153 157 159 161 164 158 150 153 152 145 146 143 143 144 145 145 142 138 137 137 139 141 136 135 137 138 134 127 125 128 130 129 127 124 126 125 124 122 115 111 112 112 109 101 101 98 93 87 82 79 77 74 72 72 72 72 70 67 66 64 63 64 63 62 60 58 55 55 51 54 53 51 49 49 47 45 45 43 41 38 36 35 33 32 31 31 31 31 31 31 31 30 30 30 30 30 30 29 29 31 30 29 31 31 32 30 30 31 29 29 29 30 31 31 31 31 31 31 31 31 31 31 31 31 31 31 31 31 31 31 31 31 31 31 31
10 10 10 10 9 8 9 9 9 9 9 9 10 10 10 9 9 9 9 9 9 10 10 10 11 11 11 13 13 13 14 14 14 14 14 14 14 14 14 13 13 13 12 12 12 12 11 11 11 12 13 13 13 14 15 16 17 18 19 20 21 22 23 24 26 27 29 31 31 32 34 35 36 37 38 39 40 42 44 45 46 47 48 50 52 53 55 57 58 60 62 63 65 67 68 70 72 74 76 75 79 85 86 86 94 99 97 105 109 116 122 119 119 124 134 143 143 149 152 158 159 157 162 164 164 167 159 154 152 151 150 149 147 144 147 149 146 144 141 140 141 138 143 137 140 140 137 131 129 131 128 129 132 128 127 129 128 126 118 114 114 115 111 109 105 103 98 94 92 85 82 79 72 74 72 73 75 75 69 69 67 64 62 66 65 64 62 59 58 57 55 53 52 51 49 47 45 44 42 41 39 38 36 34 33 32 31 31 31 30 30 30 30 30 30 30 30 30 29 29 31 31 30 31 31 31 31 31 31 31 30 29 29 29 31 31 31 31 31 31 31 31 31 31 31 31 30 31 32 31 31 31 31 31 31 31
10 10 10 10 9 8 9 9 9 9 9 9 10 10 10 9 9 9 9 9 9 10 10 10 11 11 11 12 12 12 13 13 13 13 13 13 14 13 13 13 12 12 12 12 11 11 11 11 11 12 13 13 13 14 15 16 17 18 19 20 21 22 23 24 26 27 29 31 31 33 34 35 36 37 38 39 40 42 44 45 46 47 49 50 53 53 55 57 58 60 62 63 65 67 68 70 72 72 74 75 75 82 90 91 93 99 107 104 105 108 112 119 128 132 140 146 147 152 157 159 162 164 162 162 163 166 163 155 155 153 151 152 150 146 151 152 149 145 142 142 142 143 149 141 146 145 136 131 132 131 130 132 132 129 129 131 129 126 122 121 112 119 114 108 103 102 98 91 87 83 78 76 77 76 74 75 76 76 74 74 70 67 64 66 65 66 64 63 61 59 57 54 53 51 50 48 46 45 43 41 40 38 36 34 33 32 31 31 31 30 30 30 30 30 30 30 30 30 29 29 31 31 31 31 31 31 31 31 31 31 31 29 29 30 31 31 31 31 31 31 31 31 31 31 31 31 30 31 32 31 31 31 31 31 31 31
10 10 10 10 9 8 9 9 9 9 9 9 10 10 10 9 9 9 9 9 9 10 10 10 11 11 11 11 11 11 12 12 12 12 12 12 12 12 12 11 11 11 10 10 10 10 11 11 11 11 12 12 13 14 15 16 17 18 19 20 21 22 23 24 26 27 29 31 31 33 34 35 36 37 38 39 40 42 44 45 46 47 50 52 53 53 55 57 58 60 62 63 65 67 68 70 72 73 75 78 79 78 80 88 93 103 103 103 111 116 119 129 136 140 143 147 148 152 158 162 165 166 167 167 168 168 163 160 160 157 153 153 151 149 154 155 152 147 144 145 144 149 149 146 141 135 134 131 135 131 133 137 133 131 133 134 130 126 120 114 114 111 113 110 103 100 91 86 84 80 77 79 82 80 80 82 81 82 84 82 78 74 70 68 68 67 65 63 62 60 58 56 54 51 51 49 47 46 44 42 40 38 36 34 33 32 31 31 31 30 30 30 30 30 30 30 30 30 29 29 31 31 31 31 31 31 31 31 31 31 31 31 31 31 31 31 31 31 31 31 31 31 31 31 31 31 30 31 32 31 31 31 31 31 31 31
11 10 9 9 9 9 9 9 9 9 9 9 9 9 9 9 9 9 9 9 9 10 10 10 9 10 11 12 12 12 12 12 12 12 12 12 12 12 12 11 11 11 11 11 11 10 10 10 10 10 12 12 12 14 14 15 17 17 18 20 20 22 23 24 25 26 28 29 30 31 33 34 35 37 38 39 40 42 44 44 46 47 49 51 53 53 55 57 58 60 62 63 64 65 67 69 71 74 76 79 80 81 86 90 91 94 99 106 118 125 125 131 137 137 141 141 144 148 149 154 157 164 170 173 172 174 175 172 168 162 159 161 155 153 156 157 154 150 147 149 149 149 147 148 144 140 136 134 136 132 134 138 135 133 132 125 121 122 120 119 114 110 105 99 100 93 85 91 86 80 82 85 84 87 86 89 87 85 90 88 82 80 76 71 68 65 65 64 62 61 59 57 55 51 51 50 49 46 44 42 41 39 37 35 34 32 32 31 30 31 31 31 30 30 30 30 30 30 30 30 31 31 31 31 31 31 30 30 31 31 31 31 31 31 31 31 31 31 31 31 32 31 31 30 31 31 29 30 31 31 31 31 31 31 31 31
11 10 9 9 9 9 9 9 9 9 9 9 9 9 9 9 9 9 9 9 9 10 9 9 9 10 11 12 12 12 11 11 11 11 11 11 12 11 11 11 11 11 10 11 11 10 10 10 10 10 12 12 12 13 14 15 16 17 18 19 20 22 23 24 24 26 28 29 30 31 33 34 35 37 38 39 40 42 44 44 46 48 49 51 53 53 55 57 58 60 62 63 64 65 67 69 71 73 75 78 78 84 86 88 91 97 100 106 114 116 120 126 128 132 134 132 137 145 151 157 160 165 170 173 174 174 171 170 172 169 165 164 156 154 160 161 157 152 151 152 153 154 154 152 146 143 140 139 138 136 136 138 135 131 124 125 124 122 122 118 111 106 103 101 95 90 91 95 83 83 85 88 89 93 92 94 91 90 92 93 87 85 80 75 70 68 69 66 64 62 59 55 56 54 51 50 49 46 44 42 41 39 37 36 34 33 32 31 30 31 31 31 30 30 30 30 30 30 30 31 32 32 31 31 32 32 31 30 31 31 31 31 31 31 31 31 31 31 31 31 31 31 32 33 31 31 30 31 31 31 31 31 31 31 31 31
11 10 9 9 9 9 9 9 9 9 9 9 9 9 9 9 9 9 9 9 9 8 8 8 9 10 11 10 10 10 10 10 10 10 10 10 10 10 10 9 9 9 9 9 9 9 10 10 10 10 12 12 12 13 14 15 16 17 18 19 20 22 23 24 24 26 28 29 30 31 33 34 35 37 38 39 40 42 44 44 46 48 49 51 53 53 55 57 58 60 62 63 64 65 67 69 71 73 75 78 80 87 93 94 93 94 92 96 102 108 117 118 123 127 129 133 139 147 155 159 159 161 165 169 165 168 171 167 166 166 167 165 159 161 162 162 160 156 155 157 156 154 154 152 149 147 140 141 135 140 141 138 133 128 125 128 125 120 113 117 112 111 104 98 94 95 96 85 82 88 91 93 97 99 101 100 97 99 96 94 89 87 83 78 73 75 74 70 66 63 59 57 59 56 53 51 48 46 44 42 41 39 37 36 34 33 32 31 30 31 31 31 30 30 30 30 30 30 31 32 33 33 33 33 33 33 32 31 31 31 31 31 31 31 31 31 31 33 33 33 31 31 36 38 35 32 32 31 31 31 31 31 31 31 31 31
10 10 10 9 9 9 9 9 9 9 9 9 9 8 8 8 8 8 8 8 8 9 9 9 9 9 10 9 9 9 10 10 10 10 10 11 10 10 10 9 9 9 8 8 8 9 9 9 10 10 12 12 12 13 14 14 16 16 17 19 19 21 23 23 25 26 27 29 30 32 32 34 35 37 38 39 41 43 45 45 47 47 48 50 52 53 55 56 58 60 62 62 63 64 67 68 71 74 77 80 85 88 98 102 98 104 110 107 102 107 117 115 114 118 123 132 138 147 154 154 149 153 159 161 164 167 165 168 164 164 166 165 164 166 162 160 159 156 155 157 155 151 149 149 149 148 145 146 141 142 139 136 130 127 130 131 125 119 114 112 105 103 99 96 97 102 96 88 87 92 95 95 101 102 105 104 102 102 100 101 97 92 85 79 75 78 77 72 69 65 59 61 58 56 54 50 47 46 45 43 40 38 37 35 34 33 32 31 30 31 32 32 30 29 29 30 30 30 32 33 34 34 33 34 34 34 32 32 32 32 31 30 31 32 32 32 32 33 33 33 32 34 39 43 40 36 33 33 31 32 32 32 32 32 32 31
10 10 10 9 9 9 9 9 9 9 9 9 9 8 7 8 8 8 8 8 8 9 9 9 9 9 9 9 9 9 10 10 10 10 10 11 10 10 10 9 9 9 8 8 8 8 9 9 9 10 12 12 12 13 14 14 15 16 17 18 19 21 22 23 25 26 27 28 30 32 33 35 36 37 38 39 41 43 45 45 48 47 49 50 52 55 56 56 58 60 62 63 66 67 68 71 74 78 80 82 88 87 89 94 107 104 110 115 109 105 106 114 113 119 123 131 138 147 150 151 146 147 151 155 158 160 159 162 159 162 165 163 161 160 159 155 152 151 152 153 151 152 153 146 143 145 145 144 145 141 137 133 130 130 132 131 125 118 115 113 109 108 100 98 101 104 97 88 94 100 99 100 105 107 109 107 105 107 103 105 101 94 88 80 79 84 78 76 76 70 63 61 59 60 59 54 51 47 45 42 39 39 38 35 35 34 32 32 31 31 31 31 30 30 30 28 29 31 33 34 35 36 35 35 35 34 33 32 32 32 31 31 32 32 33 33 33 33 33 33 34 37 41 45 44 41 37 37 35 34 34 34 34 34 34 32
8 8 8 9 9 9 9 9 9 9 9 9 9 8 7 8 8 8 8 8 8 9 9 9 9 9 9 9 9 9 10 10 10 9 9 9 8 8 8 9 9 9 8 8 8 8 9 9 9 10 12 12 12 13 14 14 15 16 17 18 19 21 22 23 25 26 27 28 30 32 33 35 36 37 38 39 41 43 45 46 49 47 50 52 53 56 56 57 58 60 62 61 68 69 73 78 79 83 85 85 87 94 100 100 99 108 113 119 117 113 114 107 114 119 121 130 135 143 141 142 138 137 141 145 149 153 153 156 157 161 161 159 157 155 154 156 155 153 149 145 146 145 145 145 142 141 142 141 141 138 134 132 131 134 134 129 122 120 116 114 110 108 101 103 106 107 96 91 100 104 102 105 111 113 114 112 107 114 105 111 105 97 90 81 87 86 81 79 78 73 68 64 63 69 63 59 56 54 46 43 41 40 39 37 36 35 34 33 32 32 32 32 30 31 33 33 34 36 36 37 38 37 37 37 36 35 34 33 32 32 32 32 33 34 35 35 35 35 35 35 36 40 45 45 47 44 40 41 39 38 38 38 38 38 38 36
9 8 9 9 9 9 9 9 9 9 9 9 8 8 8 8 8 8 8 8 8 9 9 8 8 8 8 9 9 9 9 9 9 9 9 9 9 8 8 8 8 8 8 8 8 8 8 8 9 9 11 11 11 13 13 14 15 16 17 18 19 21 22 23 24 25 27 28 30 32 31 34 36 37 40 39 42 43 44 47 49 49 51 53 54 58 59 58 59 61 63 68 74 74 69 73 73 74 76 77 80 87 91 96 103 105 112 117 115 115 110 115 111 115 117 121 125 130 131 133 135 141 147 150 151 154 154 157 160 160 159 159 159 160 159 156 152 153 151 150 148 144 141 143 144 138 138 138 136 137 133 132 134 136 133 128 126 121 118 113 108 106 100 106 102 97 91 101 109 111 104 109 113 117 116 114 110 117 109 114 109 98 89 82 88 92 90 85 85 79 78 68 68 75 73 71 65 58 49 45 42 40 39 37 37 35 34 34 32 35 35 34 38 41 44 43 41 41 39 38 38 40 39 39 37 36 34 33 32 32 32 32 34 35 35 35 36 36 36 35 38 43 48 46 46 45 43 43 43 41 39 39 39 39 39 38
9 9 9 9 9 9 9 9 9 9 9 9 8 8 8 8 8 8 8 8 8 9 9 8 8 8 8 9 9 9 8 8 8 9 9 9 9 9 9 8 8 8 8 8 8 8 8 8 8 9 10 11 11 12 13 14 15 16 17 18 19 21 22 23 23 25 27 29 29 30 34 37 39 42 46 48 45 46 47 49 50 51 55 59 59 61 62 61 63 71 69 73 77 78 76 75 74 76 76 76 77 78 82 90 91 96 103 108 109 114 117 116 116 116 116 118 120 124 126 135 143 147 151 157 159 158 159 158 159 164 166 165 162 160 159 156 154 154 151 148 146 145 145 140 141 137 136 136 136 135 131 132 134 134 130 127 124 119 116 111 108 103 103 107 104 98 93 108 114 113 108 111 116 119 121 114 115 118 110 118 111 98 90 86 92 95 88 87 88 84 79 68 79 81 79 78 71 66 57 52 44 43 42 38 38 37 33 36 36 38 39 38 44 49 54 54 53 51 45 41 39 42 41 40 38 36 34 34 32 31 32 33 35 37 37 37 37 36 37 37 39 44 47 48 47 46 44 44 47 45 42 41 41 41 41 42
9 9 9 9 9 9 9 9 9 9 9 9 8 8 8 8 8 8 8 8 8 8 8 7 8 8 8 9 9 9 8 8 8 7 7 7 7 7 7 8 8 8 8 8 8 8 8 8 8 9 10 11 11 12 13 13 14 14 17 18 19 20 21 21 23 25 27 28 31 32 38 41 43 45 48 52 48 49 50 53 54 55 56 57 59 63 66 65 67 64 71 73 77 78 82 82 81 82 82 83 84 81 81 87 92 95 97 97 105 110 114 116 117 120 123 128 128 128 133 134 134 134 140 149 152 151 153 159 157 157 159 159 163 165 163 160 158 155 152 150 148 142 139 136 137 136 135 133 132 131 128 130 131 129 126 124 119 118 113 108 104 105 109 107 103 103 94 114 120 115 114 113 121 122 124 115 121 121 115 123 113 97 87 88 95 95 90 91 91 87 77 69 80 85 89 85 78 69 59 53 50 51 50 44 40 43 38 41 41 42 45 46 50 56 61 64 61 58 52 50 45 44 43 40 38 37 36 35 33 32 33 34 36 38 39 39 39 38 39 40 41 44 47 50 49 48 46 46 49 51 46 44 43 45 46 47
9 9 9 9 9 9 9 9 9 9 9 9 8 8 8 8 8 8 8 8 8 8 7 7 8 8 8 8 9 8 8 8 8 7 7 7 7 7 7 7 8 7 8 8 8 8 8 8 8 9 10 11 11 12 13 12 13 14 16 18 18 19 20 21 23 25 27 29 34 35 39 42 43 44 44 48 49 50 53 54 56 56 58 60 62 64 67 67 69 70 68 75 80 81 82 84 85 85 86 89 86 87 82 82 90 92 96 96 102 104 110 113 107 115 122 130 130 126 130 125 127 130 135 143 147 152 152 151 149 154 162 162 162 162 158 156 156 153 152 150 145 142 139 137 135 134 133 131 129 129 127 129 128 124 121 121 117 112 109 106 107 109 109 104 102 106 96 112 123 117 118 116 125 127 123 118 122 123 119 126 113 98 89 94 98 97 95 93 92 86 76 79 83 92 94 85 78 69 63 56 58 57 56 52 43 46 46 48 45 44 50 53 55 65 70 69 69 62 60 57 50 46 45 40 40 39 39 39 38 35 36 37 38 38 40 40 39 39 41 42 43 46 47 50 50 49 48 48 51 54 50 48 46 46 49 47
9 9 9 9 9 9 9 9 9 9 9 9 8 8 8 8 8 8 8 8 8 8 8 8 8 8 8 8 8 8 8 8 8 8 8 8 7 7 7 6 8 6 8 8 8 8 8 8 8 9 10 11 11 12 13 12 13 14 16 17 18 18 20 22 22 24 26 29 35 35 38 44 46 46 46 50 51 52 55 55 58 58 59 62 63 64 67 68 70 72 70 68 72 78 78 81 86 88 88 92 93 93 88 86 86 86 89 93 99 101 106 106 110 113 116 122 120 122 124 124 127 135 140 142 144 146 144 143 145 153 159 159 158 159 158 153 148 146 146 145 142 142 139 137 133 132 131 129 128 127 126 127 124 120 118 115 111 108 107 109 111 108 105 103 104 105 99 110 123 121 125 117 124 135 126 124 125 123 123 130 115 95 95 100 102 102 100 99 94 90 81 78 85 93 96 86 76 72 69 63 66 64 58 57 48 49 51 53 51 48 53 60 59 71 80 74 78 64 65 64 54 49 53 49 51 50 48 48 47 43 46 47 47 44 42 42 40 42 42 43 46 48 51 50 53 52 51 52 54 57 54 54 52 49 53 52
9 9 9 9 9 9 9 9 9 7 7 7 8 8 8 8 8 8 8 8 8 8 8 8 8 8 8 8 8 8 8 8 8 8 8 8 7 7 7 6 8 6 8 8 8 8 8 8 8 8 9 9 10 11 11 12 13 14 15 16 16 17 19 21 22 24 25 30 35 37 37 41 46 48 48 53 55 54 56 58 59 61 61 62 65 66 66 70 73 74 73 76 77 75 78 82 87 89 92 93 96 98 95 93 90 88 86 89 93 102 102 103 103 108 115 118 117 121 118 122 126 133 139 137 135 136 137 141 147 155 159 159 157 156 155 151 148 146 143 142 140 140 136 134 131 129 129 127 126 124 124 121 119 115 112 110 110 110 110 111 108 107 106 105 102 99 99 110 123 127 123 121 128 135 126 123 128 121 129 127 112 94 99 105 106 106 106 101 96 92 82 78 89 96 96 90 79 73 69 66 66 65 60 57 50 54 56 56 52 48 52 63 64 70 84 77 77 65 71 67 52 53 60 59 60 60 56 54 52 50 53 53 52 49 44 44 45 44 46 47 48 52 54 53 57 58 56 57 59 61 59 61 60 58 57 54
9 8 9 9 8 9 9 8 9 7 7 7 8 8 8 8 8 8 8 8 8 8 8 8 7 7 8 8 7 7 8 7 7 8 8 8 7 7 7 6 7 6 8 8 8 8 8 7 7 7 8 9 9 10 10 12 13 14 14 15 16 17 18 20 23 25 28 31 34 38 38 40 43 48 48 51 57 56 56 59 59 63 63 62 64 67 67 70 74 75 73 72 80 82 77 77 81 87 90 90 91 95 97 97 95 93 91 91 91 95 96 97 103 110 112 111 116 112 116 118 123 129 135 132 132 134 140 145 151 156 155 153 150 150 150 151 153 151 146 144 140 138 135 134 131 130 128 126 124 123 122 117 116 112 109 110 112 113 111 108 105 107 106 105 104 100 106 113 124 131 127 125 124 137 130 126 128 124 131 118 103 97 107 112 115 117 114 106 99 92 81 80 91 98 98 93 82 76 71 72 70 69 71 64 57 62 68 65 58 55 57 69 72 76 85 83 76 71 74 63 50 60 68 70 70 70 66 61 60 59 61 60 59 54 46 46 47 47 48 49 50 53 54 56 58 62 58 62 62 63 64 65 65 63 60 61
8 8 8 8 8 8 8 8 8 8 8 8 8 8 8 8 8 8 8 8 8 8 8 8 6 7 7 7 7 7 7 7 7 7 7 7 7 7 7 7 7 7 7 8 8 7 7 7 7 8 8 8 9 9 9 12 13 14 14 15 16 18 19 21 23 25 27 32 36 41 42 45 46 46 51 55 57 56 57 58 61 64 65 63 63 66 69 72 73 76 77 74 74 78 83 81 78 81 83 85 90 91 93 95 96 97 99 100 101 99 102 100 100 103 105 109 107 112 120 126 126 126 123 128 134 134 139 141 151 150 151 150 148 147 149 150 150 149 144 142 141 137 134 132 130 129 126 124 123 120 118 114 115 114 112 114 112 110 110 108 107 107 106 105 104 100 106 114 124 134 132 127 128 138 133 129 132 127 128 117 102 102 107 112 121 121 114 103 102 96 86 82 90 97 100 94 86 82 77 78 77 79 79 62 67 68 71 70 68 59 60 72 76 82 87 86 78 77 72 60 55 68 75 80 78 76 74 68 67 66 65 63 63 56 48 50 47 50 50 51 52 54 56 62 56 65 63 70 67 69 70 71 72 71 68 67
8 8 8 8 8 8 8 8 8 8 8 8 8 8 8 8 8 8 8 8 8 8 8 8 8 7 7 7 7 7 7 7 7 7 7 7 7 7 7 7 7 7 7 8 8 7 7 7 7 8 8 8 9 9 9 11 12 12 13 14 14 18 19 21 23 26 27 30 33 38 43 46 49 48 49 51 57 59 59 60 63 65 66 68 68 68 70 72 74 76 80 82 81 79 78 84 86 81 84 86 93 95 97 96 98 101 101 102 104 107 106 104 102 102 101 102 114 117 118 123 122 122 128 131 131 133 138 142 151 146 148 148 149 150 150 151 152 148 143 140 138 135 132 130 128 127 124 122 121 118 116 116 116 115 115 116 112 110 110 109 109 107 106 105 106 103 105 107 113 124 133 134 132 141 137 134 137 130 125 111 104 102 105 115 123 125 115 105 101 96 83 85 93 100 103 96 93 86 79 83 85 89 80 68 83 83 80 79 79 65 67 80 85 88 90 88 83 77 68 58 64 73 80 86 84 77 76 77 76 71 71 69 67 55 53 53 51 52 53 55 54 57 58 64 59 68 66 72 70 73 74 74 76 77 75 73
8 8 8 8 8 8 8 8 8 8 8 8 8 8 8 8 8 8 8 8 8 8 8 8 8 7 6 7 7 7 7 7 7 7 7 7 7 7 7 7 7 7 7 8 8 7 7 7 7 8 8 8 8 9 9 10 11 12 12 13 14 18 20 21 23 29 34 36 36 39 41 43 46 50 55 61 57 63 63 63 66 67 67 71 72 70 69 69 77 76 80 81 84 82 82 84 86 87 86 88 86 90 95 100 103 102 104 107 109 110 108 106 105 107 105 107 110 112 116 117 122 128 123 126 130 134 142 147 149 152 147 146 151 153 154 155 154 149 142 139 136 133 132 128 126 126 123 121 120 118 117 120 119 115 114 116 114 112 111 111 110 108 107 105 110 104 102 106 111 121 129 139 137 144 141 140 138 134 126 114 109 103 107 114 120 127 116 110 105 95 86 87 97 104 106 100 100 90 85 92 94 100 82 85 90 93 90 84 85 71 73 85 92 91 92 89 85 76 61 59 71 77 87 93 90 80 80 84 79 74 74 72 66 53 57 57 56 55 57 56 56 57 60 64 63 69 72 77 76 80 80 81 83 86 84 83
8 8 8 8 8 8 8 8 8 8 8 8 8 8 8 8 8 8 8 8 8 8 8 8 7 7 7 7 7 7 7 7 7 7 7 7 7 7 7 7 7 7 7 8 8 7 7 7 7 8 8 8 7 8 9 9 10 11 12 13 15 18 20 23 24 27 32 38 45 48 49 46 49 54 56 62 62 65 69 68 69 73 71 74 79 76 73 75 79 80 82 83 85 85 82 86 88 88 87 88 88 91 93 97 103 106 106 108 109 112 113 109 109 106 106 105 112 114 118 120 125 124 130 130 132 143 142 143 147 153 149 147 146 151 151 153 153 149 143 140 137 133 130 129 127 124 122 120 120 122 121 123 118 116 117 117 114 114 116 113 109 109 108 108 114 109 104 107 112 117 124 134 144 148 145 146 145 138 126 118 113 108 113 116 122 126 117 110 100 90 90 92 95 104 111 105 106 98 96 100 106 101 89 101 105 101 97 92 91 86 83 88 98 97 100 96 89 75 63 71 79 87 92 99 94 88 88 91 84 78 80 75 64 55 61 61 62 60 60 58 60 59 63 65 68 69 75 78 81 86 85 86 87 91 92 88
8 8 8 8 8 8 8 8 8 8 8 8 8 8 8 8 8 8 8 8 8 8 8 8 7 7 7 7 7 7 7 7 7 7 7 7 7 7 7 7 7 7 7 8 8 7 7 7 7 8 8 8 7 8 9 9 10 11 12 13 15 16 19 22 25 29 29 35 46 53 52 50 53 61 62 63 69 65 70 73 76 81 77 79 88 82 81 81 80 85 84 86 87 85 84 85 89 89 90 90 90 94 98 101 103 109 110 112 114 117 118 114 112 108 107 105 111 113 121 123 121 125 125 127 141 138 137 144 146 144 146 145 142 148 147 148 149 149 144 139 136 132 129 130 129 123 123 121 120 123 126 121 118 116 117 116 114 115 118 113 110 109 110 111 114 108 105 107 111 115 123 127 133 145 149 152 150 141 130 124 119 112 119 121 127 130 121 112 101 103 95 102 104 105 115 112 112 108 106 110 116 103 96 110 112 109 102 103 99 98 94 93 101 105 105 93 82 70 64 77 87 94 98 104 98 93 94 98 91 84 85 74 64 59 67 67 67 64 63 60 65 64 65 70 72 72 78 83 86 91 94 94 92 96 101 98
8 8 8 8 8 8 8 8 8 8 8 8 8 8 8 8 8 8 8 8 8 8 8 8 7 7 7 7 7 7 7 7 7 7 7 7 7 7 7 7 7 7 7 8 8 7 7 7 7 8 8 8 7 8 9 9 10 11 12 13 15 16 19 20 26 35 37 39 48 58 58 56 60 65 67 67 73 72 75 77 79 85 81 82 93 83 86 81 82 88 87 89 90 87 86 85 90 90 93 91 91 95 100 103 106 107 114 116 117 120 121 118 115 111 109 107 107 110 118 118 117 123 126 135 132 134 138 140 142 138 142 138 144 144 145 147 147 147 146 141 135 131 129 127 126 123 124 124 123 120 124 117 117 115 116 116 114 115 116 115 113 112 114 114 113 103 106 107 110 113 117 124 132 137 149 156 151 143 136 130 120 111 120 124 129 136 122 116 112 106 98 104 119 114 118 116 116 114 112 116 112 107 98 112 116 116 113 110 110 109 104 101 104 108 102 92 83 72 68 84 94 101 107 111 105 100 104 105 95 88 87 73 63 62 69 68 69 65 67 65 71 70 69 74 74 73 80 86 90 90 98 100 95 98 105 104
8 8 8 8 8 8 8 8 8 8 8 8 8 8 8 8 8 8 8 8 8 7 7 7 6 6 6 7 7 7 7 7 7 7 7 7 7 7 7 7 7 7 7 7 7 7 7 7 7 7 7 7 7 8 9 10 11 11 12 14 16 19 21 21 30 37 41 47 49 56 61 59 66 67 70 70 79 82 82 83 82 87 88 89 93 90 86 85 88 92 96 90 94 90 85 87 86 94 94 94 95 99 102 104 109 110 115 119 121 123 125 121 119 114 111 109 111 108 111 118 119 119 128 129 132 134 137 136 135 138 140 143 142 139 139 142 143 142 144 140 136 130 129 126 124 123 125 126 126 124 124 123 118 116 118 119 118 117 118 119 115 116 120 116 108 105 108 108 108 112 119 120 125 137 144 152 151 147 134 127 121 117 118 123 133 139 131 121 114 111 99 98 110 123 123 121 122 121 120 123 115 115 106 114 122 119 118 114 112 114 106 107 111 113 101 91 84 76 73 86 95 104 115 117 110 104 114 109 99 95 86 76 63 69 75 73 76 76 78 71 78 76 79 80 80 75 85 89 97 92 100 105 98 102 109 109
8 8 8 8 8 8 8 8 8 8 8 8 8 8 8 8 8 8 8 8 8 7 7 7 7 7 7 7 7 7 7 7 7 7 7 7 7 7 7 7 7 7 7 7 7 7 7 7 7 7 7 7 7 8 9 11 12 12 14 17 18 21 23 26 34 43 45 55 58 62 66 64 71 74 74 74 81 88 86 91 88 92 92 95 95 96 91 93 93 97 97 94 93 91 87 92 89 94 98 97 99 101 106 110 113 113 112 118 122 127 129 125 123 118 116 114 115 113 111 116 116 119 126 124 129 132 128 132 134 137 139 138 137 138 139 142 144 143 146 141 135 130 128 126 124 123 123 126 128 125 125 122 118 117 120 124 121 119 123 121 121 116 117 111 105 106 108 109 109 113 116 121 129 132 136 144 149 139 136 134 126 119 121 128 137 144 138 126 120 112 102 114 110 112 126 128 128 124 126 127 122 117 106 119 126 121 123 117 119 117 109 110 112 107 101 91 86 74 77 90 99 108 120 124 117 111 121 113 104 100 88 74 70 78 80 78 85 85 84 79 83 81 86 86 87 78 89 94 101 96 104 109 101 107 113 114
8 8 8 8 8 8 8 8 8 8 8 8 8 8 8 8 8 8 8 8 8 7 7 7 8 8 8 7 7 7 7 7 7 7 7 7 7 7 7 7 7 7 7 7 7 7 7 7 7 7 7 7 7 9 9 11 12 13 15 17 19 22 25 30 39 51 47 50 59 67 71 67 72 78 77 77 86 90 93 94 88 98 97 105 104 98 94 101 104 106 100 101 98 97 93 93 93 95 101 100 102 102 109 114 117 117 117 121 124 131 129 128 125 120 118 120 119 117 114 111 112 120 122 126 126 125 130 133 135 133 132 133 135 136 137 139 142 142 144 140 134 129 127 126 124 123 123 123 124 127 128 123 118 118 122 125 122 119 126 123 124 119 119 111 108 108 108 110 110 113 115 116 120 126 135 141 148 153 142 135 125 122 121 136 141 148 137 130 127 109 111 121 127 127 127 131 130 133 128 117 110 110 110 127 134 128 132 124 129 126 118 119 117 110 110 101 95 79 82 92 102 110 122 128 123 116 122 114 108 99 85 75 76 83 88 87 95 95 92 89 91 88 95 95 96 85 90 102 102 99 107 112 105 110 112 116
8 8 8 8 8 8 8 8 8 8 8 8 8 8 8 8 8 8 8 8 8 7 7 7 7 7 7 7 7 7 7 7 7 7 7 7 7 7 7 7 7 7 7 7 7 7 7 7 7 7 7 7 8 10 12 13 14 14 14 17 19 22 28 34 43 47 55 54 56 62 70 77 76 81 77 83 91 93 97 101 93 101 102 113 107 101 98 110 110 114 104 103 101 101 98 94 95 95 104 106 109 105 111 115 119 124 122 122 126 130 132 130 127 124 120 119 117 115 118 119 116 115 118 122 124 126 128 127 128 130 130 130 133 134 136 138 137 139 140 139 133 127 127 124 123 124 127 124 126 127 125 123 120 118 120 126 125 122 124 128 126 121 124 116 110 108 109 109 111 112 115 118 120 127 138 152 157 153 141 128 126 124 122 133 140 146 140 134 127 111 115 132 138 134 133 137 137 140 136 131 129 119 111 116 137 139 135 133 139 138 130 128 123 116 113 106 99 82 91 99 106 115 127 136 130 124 128 120 113 97 86 81 78 93 93 92 96 102 97 99 96 90 96 102 99 95 87 104 104 102 105 115 114 113 118 120
8 8 8 8 8 8 8 8 8 8 8 8 8 8 8 8 8 8 8 8 8 7 7 7 7 7 7 7 7 7 7 7 7 7 7 7 7 7 7 7 7 7 7 7 7 7 7 7 7 7 7 7 9 11 12 14 15 15 16 18 19 22 30 39 43 50 61 67 66 70 68 81 82 83 81 83 97 101 105 107 97 108 107 115 109 104 105 115 115 116 107 109 107 105 99 97 97 94 102 110 111 108 111 117 122 128 126 124 125 131 134 133 130 127 123 120 117 117 120 123 120 116 118 121 122 121 122 123 124 126 127 128 130 131 133 133 134 136 136 134 131 127 127 124 123 124 128 125 126 129 125 119 119 117 119 127 129 126 123 132 130 126 127 117 112 109 110 109 112 113 114 119 123 131 137 146 157 149 138 133 130 127 123 129 137 144 138 131 125 115 117 125 138 141 140 142 144 152 151 144 133 127 115 115 123 142 146 144 149 144 138 136 132 127 123 114 103 86 91 93 101 112 122 133 135 134 127 120 111 97 90 87 80 96 100 100 103 102 101 100 101 95 99 106 108 103 87 109 110 111 108 116 117 113 118 125
8 8 8 8 8 8 8 8 8 8 8 8 8 8 8 8 8 8 8 8 8 7 7 7 7 7 7 7 7 7 7 7 7 7 7 7 7 7 7 7 7 7 7 7 7 7 7 7 7 7 7 7 10 12 13 14 15 16 18 18 19 23 33 43 39 43 61 74 75 81 79 85 89 91 86 84 93 106 109 112 100 113 115 121 115 108 109 114 120 121 116 113 112 107 99 101 103 94 99 109 113 111 111 122 124 128 132 129 128 131 135 135 132 129 126 119 122 122 124 121 120 116 116 118 120 121 120 122 124 126 128 128 126 125 127 131 132 134 135 134 130 127 127 124 123 124 127 127 130 129 128 121 121 119 121 128 130 123 121 134 131 124 125 115 112 110 111 110 112 114 114 119 124 128 133 142 155 151 145 140 134 128 128 131 138 146 137 127 123 123 119 124 128 142 151 151 154 155 144 134 126 127 119 114 131 142 156 151 152 149 145 143 137 134 130 118 100 91 109 105 99 110 121 134 139 136 123 115 107 97 93 91 81 97 103 107 110 106 106 104 102 101 104 110 111 105 87 114 115 120 117 117 121 120 118 128
8 8 8 7 7 7 7 7 7 8 8 8 8 8 8 8 8 8 8 8 8 7 7 7 6 7 7 7 7 7 7 7 7 7 7 7 7 7 7 7 7 7 7 7 7 7 7 7 7 7 9 9 10 12 14 15 17 19 22 21 23 26 33 42 55 50 52 64 81 89 88 93 94 93 90 86 94 108 117 116 112 114 123 126 112 110 114 119 123 124 120 119 118 107 103 101 100 100 100 110 113 113 113 125 127 129 134 133 132 130 135 137 133 129 128 125 123 122 125 123 123 122 118 118 118 122 124 123 123 124 125 125 125 124 124 126 128 130 132 134 132 127 126 124 124 124 127 129 129 128 125 121 121 121 121 122 125 127 129 127 132 131 126 117 114 111 112 112 113 114 116 120 126 130 135 146 156 160 155 148 139 133 129 134 142 142 134 132 127 124 123 129 142 141 149 156 157 141 138 133 130 124 118 119 124 136 149 159 157 151 147 141 132 120 118 114 101 92 113 120 112 113 119 130 141 132 118 106 102 96 95 92 85 98 105 112 116 108 109 112 110 105 110 112 117 104 92 114 119 124 124 120 130 128 126 129
8 8 8 7 7 7 7 7 7 8 8 8 8 8 8 8 8 8 8 8 8 7 7 7 7 7 7 7 7 7 7 7 7 7 7 7 7 7 7 7 7 7 7 7 7 7 7 7 7 7 9 9 11 13 14 16 18 19 21 22 26 29 34 40 53 65 63 63 75 86 94 99 101 99 96 88 95 110 120 123 122 119 129 128 120 121 116 122 133 127 129 125 123 111 108 104 104 101 98 106 113 114 117 123 131 131 134 134 135 134 135 137 134 130 129 125 125 124 126 123 124 124 120 119 116 117 120 121 121 121 123 124 124 123 122 123 124 124 125 128 131 128 125 124 125 126 130 132 132 130 127 122 122 122 122 123 128 125 135 130 134 133 124 115 116 113 115 113 114 115 118 119 130 133 136 147 158 167 164 153 139 133 130 134 137 143 140 141 133 126 129 138 145 150 149 159 151 151 153 143 134 122 120 130 127 129 144 157 164 157 150 142 134 127 116 109 103 93 107 121 128 125 125 127 134 127 119 113 105 101 99 85 87 97 103 111 116 110 116 117 110 107 113 119 119 102 95 114 129 131 131 125 137 136 136 136
8 8 8 7 7 7 7 7 7 8 8 8 8 8 8 8 8 8 8 8 8 7 7 7 8 7 6 7 7 7 7 7 7 7 7 7 7 7 7 7 7 7 7 7 7 7 7 7 7 7 9 9 12 13 15 17 18 20 21 23 28 29 40 48 50 61 68 77 84 86 88 100 107 104 97 94 87 98 115 126 129 126 131 137 128 128 117 124 138 128 132 126 123 110 109 109 106 103 104 104 111 116 124 123 128 132 135 136 137 136 135 137 135 131 129 124 127 124 124 122 123 121 119 120 118 115 117 119 119 121 122 123 123 123 123 123 121 121 121 122 129 127 124 125 128 129 132 135 134 132 128 124 123 123 123 125 132 133 131 135 134 133 124 119 117 115 116 114 115 116 119 120 125 134 143 146 156 167 167 155 140 139 136 134 140 149 151 142 140 126 131 136 150 151 161 159 154 161 162 144 127 122 129 140 139 137 148 156 172 162 156 149 139 138 129 124 115 108 106 121 132 129 133 134 135 125 120 111 105 112 98 90 102 103 105 115 120 117 121 119 111 112 121 121 121 104 98 119 134 137 134 129 145 145 146 143
8 8 8 8 8 8 6 7 8 8 8 8 9 9 9 8 8 8 7 7 7 7 7 7 7 6 5 7 7 7 7 7 7 7 7 7 7 7 7 7 7 7 7 7 7 7 7 7 7 7 9 10 12 13 15 17 18 20 23 25 26 30 38 46 58 65 71 77 82 88 92 97 104 111 98 101 96 103 111 121 134 133 138 139 131 134 123 133 137 129 136 129 127 115 112 114 112 105 107 102 111 116 125 130 127 132 135 137 139 137 136 139 135 131 130 127 125 124 124 122 121 119 118 117 117 117 117 117 117 118 120 120 121 121 121 120 120 120 122 122 127 130 125 127 130 132 137 134 135 133 127 126 124 124 124 127 130 135 132 137 142 132 127 123 118 117 116 116 115 118 119 122 124 128 133 143 149 160 170 161 148 142 138 137 146 155 157 147 137 129 139 147 157 163 166 167 165 166 152 140 128 124 133 148 152 148 156 167 175 168 164 157 149 150 139 135 121 104 111 130 139 137 135 141 139 131 122 117 117 109 99 93 105 111 112 115 122 124 124 115 115 118 123 128 118 101 105 119 137 141 140 132 150 153 155 147
8 8 8 8 8 8 6 7 8 7 7 7 8 8 8 7 7 7 7 7 7 7 7 7 7 6 5 7 7 7 7 7 7 7 7 7 7 7 7 7 7 7 7 7 7 7 7 7 7 7 9 10 12 13 15 17 18 20 21 25 28 32 34 38 54 64 72 77 85 89 96 103 105 110 103 104 99 97 116 126 137 135 143 142 139 141 128 140 139 135 140 131 128 114 114 117 112 107 106 107 108 120 126 133 130 130 136 135 138 138 137 140 136 132 130 127 125 124 124 122 121 118 117 117 117 117 117 116 116 117 118 119 121 121 120 119 119 120 122 121 126 129 125 128 132 136 140 136 136 132 129 125 126 126 126 129 131 135 136 135 146 135 129 122 120 119 118 118 117 121 120 123 125 127 136 139 144 159 171 163 151 145 144 139 150 163 162 154 146 136 128 144 156 169 174 172 176 161 151 136 132 130 131 147 159 157 164 173 178 171 170 165 162 158 148 135 111 107 111 117 129 136 139 143 138 134 129 125 121 118 112 97 109 114 121 122 125 128 128 119 118 123 130 128 114 100 110 122 138 150 144 136 147 161 161 153
8 8 8 8 8 8 6 7 8 6 6 6 7 7 7 6 6 6 7 7 7 7 7 7 7 6 5 7 7 7 7 7 7 7 7 7 7 7 7 7 7 7 7 7 7 7 7 7 7 7 9 10 12 13 15 17 18 20 23 32 37 38 39 43 54 62 69 78 82 93 98 107 113 115 112 112 105 103 107 120 139 143 144 146 141 146 137 144 144 139 140 134 130 115 121 122 110 108 104 111 106 116 124 132 132 132 140 134 135 142 139 138 134 130 129 127 125 124 124 122 121 120 119 118 117 117 117 115 115 117 116 118 120 120 120 118 119 120 122 122 123 126 128 129 134 138 142 137 137 133 132 126 128 128 128 128 132 138 142 136 142 132 130 123 122 121 120 120 119 121 123 126 129 133 135 144 153 161 172 166 157 154 147 139 150 161 155 145 140 136 135 145 151 161 168 179 176 163 149 147 137 132 138 143 164 168 173 181 183 177 176 174 170 154 142 130 112 123 124 127 132 134 142 148 143 140 134 130 131 130 121 102 112 120 121 128 132 134 129 117 120 128 136 128 115 105 113 122 137 156 154 142 141 159 164 158
7 7 7 7 7 7 7 7 7 7 7 7 7 7 7 7 7 7 7 7 7 7 7 7 7 6 5 7 7 7 7 7 7 7 7 7 7 7 7 6 6 6 6 7 7 7 7 7 7 7 9 9 10 12 14 15 17 19 25 29 36 45 38 43 51 59 65 74 84 95 98 107 114 117 119 119 106 109 122 125 141 144 148 148 144 148 139 145 149 145 143 140 134 120 123 127 114 109 109 110 106 116 127 134 134 130 136 138 134 138 141 141 137 130 129 126 124 123 122 121 120 119 117 117 117 117 117 115 115 115 117 118 119 120 119 118 119 120 122 122 121 123 126 129 133 138 141 140 140 135 131 128 129 129 129 131 132 142 145 142 145 137 134 130 126 126 121 120 120 121 124 126 127 134 138 143 147 153 161 172 170 160 149 146 154 163 154 150 148 145 136 141 147 155 162 176 168 155 149 141 137 135 142 156 168 178 183 186 187 183 184 181 167 151 137 129 116 123 133 131 142 143 154 151 149 145 137 136 141 135 120 101 120 131 128 129 135 139 131 126 127 136 139 123 113 106 117 123 138 153 162 148 142 153 164 166
7 7 7 8 8 8 8 8 8 7 7 7 7 7 7 7 7 7 7 7 7 7 7 7 7 6 5 7 7 7 7 7 7 7 7 7 7 7 7 6 6 6 6 6 6 6 7 7 7 7 9 9 10 12 13 15 16 18 23 26 31 38 41 37 45 54 65 71 82 89 96 105 108 112 119 118 110 114 121 133 142 147 149 145 145 152 148 150 152 148 146 140 135 123 123 129 116 112 112 114 111 114 126 133 136 130 134 140 136 138 144 143 137 130 129 126 124 123 122 121 120 118 118 118 117 117 117 116 116 116 116 117 118 119 119 119 119 120 122 122 121 123 126 129 130 140 139 142 139 135 133 130 131 131 131 134 135 141 144 144 150 140 137 133 131 130 123 122 123 123 126 126 127 130 133 136 143 148 156 170 160 156 149 147 152 163 161 155 154 144 141 141 147 150 160 171 176 166 157 145 136 134 139 147 160 177 187 192 195 192 184 180 169 159 149 139 118 124 140 140 149 152 156 162 156 146 142 148 146 131 117 105 123 136 140 140 142 146 139 135 137 140 138 122 113 112 125 126 138 151 162 151 147 147 158 167
10 10 10 9 9 9 9 9 9 7 7 7 7 7 7 7 7 7 7 7 7 7 7 7 7 6 5 7 7 7 7 7 7 7 7 7 7 7 7 6 6 6 5 5 5 6 7 7 7 7 9 9 9 10 12 14 16 17 28 36 35 40 47 44 47 45 51 61 78 86 97 103 101 111 121 119 115 127 131 135 149 151 151 147 148 152 153 152 154 150 149 146 133 124 129 125 116 118 114 113 117 111 115 128 137 133 137 143 135 137 144 142 137 130 129 126 124 123 122 121 120 117 119 119 117 117 117 117 117 117 116 116 118 118 118 120 120 120 122 122 121 123 125 127 129 137 139 142 135 135 134 132 133 133 133 135 141 146 145 143 147 145 143 138 137 135 128 123 124 125 124 127 130 133 135 137 140 145 155 165 159 153 146 153 162 169 171 158 150 150 145 139 149 152 160 172 171 165 158 147 143 141 140 145 151 160 172 191 201 189 184 175 165 157 146 129 120 131 143 152 158 163 165 168 156 151 155 159 151 136 125 111 123 137 147 151 152 156 147 141 148 148 135 124 120 114 125 137 135 150 164 153 151 149 153 162
10 10 10 9 9 9 10 9 8 9 8 7 7 7 7 7 7 7 7 7 7 7 7 7 7 7 7 6 6 6 7 7 7 8 6 7 7 7 7 7 6 6 6 6 6 6 7 7 7 7 7 7 8 9 10 13 16 20 27 38 41 46 56 48 51 55 59 64 75 86 93 95 106 115 122 127 120 127 136 143 146 155 155 153 151 155 153 149 152 151 150 140 132 124 126 125 117 124 121 116 118 115 118 122 138 133 133 139 134 138 141 141 135 131 128 125 124 122 122 121 120 118 122 119 120 118 121 118 118 117 116 117 117 117 118 118 119 120 122 122 121 127 126 125 129 134 142 146 145 140 141 136 134 135 134 138 140 150 150 149 151 146 146 143 144 139 132 127 126 125 126 129 131 132 136 141 148 154 154 165 166 156 153 153 161 174 176 161 155 155 152 146 150 162 164 175 166 162 155 148 146 147 142 148 156 165 171 186 197 186 176 168 159 149 139 126 124 139 151 160 167 173 173 178 165 164 163 160 151 137 123 112 128 141 148 155 163 156 148 145 158 154 144 137 130 115 124 144 146 148 163 157 154 154 150 159
11 11 11 11 11 11 11 10 9 10 9 8 7 7 7 7 7 7 7 7 7 7 7 7 7 7 7 6 6 6 7 7 7 8 6 7 7 7 7 7 6 6 6 6 6 6 7 7 7 7 7 7 8 8 9 13 16 26 29 40 49 55 64 61 56 59 60 64 73 79 84 98 101 108 121 130 126 130 132 145 151 153 158 155 154 155 153 144 147 147 148 144 134 128 130 129 122 127 124 117 117 116 122 127 131 135 134 134 134 138 141 141 134 130 129 125 124 122 121 120 119 119 121 120 124 122 125 120 119 118 117 117 117 117 118 118 119 120 122 122 123 129 128 126 128 132 140 152 154 144 145 143 137 136 139 139 139 153 158 155 158 152 150 150 146 141 136 129 128 128 127 130 132 134 137 140 145 158 164 170 172 162 157 159 167 174 177 167 168 164 154 148 153 158 169 180 180 170 159 154 151 154 145 149 162 173 181 191 195 186 174 167 161 154 148 136 126 138 144 150 164 178 180 175 163 154 148 147 147 144 132 116 123 131 137 151 162 158 151 149 159 161 153 142 131 114 129 143 153 155 164 160 157 160 150 157
12 12 12 13 13 13 12 11 10 11 10 9 7 7 7 7 7 7 7 7 7 7 7 7 7 7 7 6 6 6 7 7 7 8 6 7 7 7 7 7 6 6 6 6 6 6 7 7 7 7 7 7 9 10 11 12 17 30 31 42 56 64 74 73 68 72 68 69 77 79 86 90 99 109 121 131 132 137 137 141 146 155 155 154 152 154 152 140 143 144 146 142 133 131 131 123 122 130 128 118 118 116 120 132 133 134 136 133 135 138 141 141 135 132 132 127 126 124 120 119 118 117 118 119 125 123 126 121 119 118 117 117 117 117 118 118 119 120 122 123 125 130 129 127 128 131 135 140 148 150 152 145 140 137 142 142 146 153 162 157 163 158 154 155 151 150 139 131 130 129 130 133 136 135 138 140 143 147 156 160 169 169 160 158 164 172 182 178 168 159 157 150 156 168 172 179 182 172 167 158 160 156 147 150 155 162 171 182 189 174 169 164 158 152 150 145 128 143 148 154 162 174 172 161 155 151 144 137 131 131 127 116 125 134 143 157 168 168 165 156 158 166 155 146 134 121 127 133 146 158 173 164 159 159 152 152
14 14 14 15 14 13 13 12 11 11 10 9 9 8 7 7 7 7 7 7 7 7 7 7 7 7 7 7 7 7 7 7 7 6 6 6 6 6 6 6 6 6 5 5 7 7 8 8 8 8 8 8 10 12 14 16 25 41 42 41 49 57 66 79 84 87 80 72 80 81 86 93 100 112 125 130 138 136 139 141 144 146 150 153 155 153 145 136 139 141 140 139 132 133 132 123 122 131 123 119 118 114 118 125 135 133 136 133 132 136 139 140 139 135 133 133 129 124 121 122 118 118 119 120 123 128 129 124 119 118 118 116 117 119 120 119 123 121 125 126 129 133 133 127 130 130 136 142 153 154 156 150 144 139 141 144 147 155 162 169 166 164 161 157 153 146 134 132 132 131 131 135 143 142 141 143 145 149 156 162 172 167 164 162 169 174 186 176 168 169 162 153 159 164 171 180 184 177 165 155 166 161 154 152 162 173 179 191 191 183 173 163 157 148 143 139 132 137 150 158 169 177 178 171 165 165 155 147 142 133 129 127 125 143 155 162 173 177 171 169 165 160 150 142 132 122 128 138 145 156 173 168 163 161 154 152
16 16 16 16 15 14 14 13 12 12 11 10 10 9 8 7 7 7 7 7 7 7 7 7 7 7 7 7 7 7 7 7 7 6 6 6 6 6 6 6 6 6 5 5 7 7 7 7 7 7 9 9 12 14 16 21 30 37 45 54 63 71 76 79 78 85 93 84 80 86 88 95 107 111 123 136 135 131 137 139 143 146 149 151 152 147 137 133 137 136 132 134 131 133 133 122 125 128 123 119 115 112 116 123 129 135 136 134 134 137 140 138 142 136 133 135 129 129 123 126 121 121 121 120 121 123 124 121 119 117 118 118 119 120 121 121 126 124 128 129 128 136 133 129 130 130 137 142 151 159 158 153 145 143 143 145 150 159 169 179 170 170 170 162 155 151 146 136 132 132 131 138 146 150 147 143 151 151 155 163 172 176 170 163 172 183 191 184 175 170 157 156 159 167 170 175 186 179 173 164 171 168 159 157 164 172 181 195 199 184 173 172 166 159 155 150 139 136 144 155 169 178 185 181 172 176 160 158 154 145 139 138 121 138 149 152 162 174 181 180 176 165 148 139 132 125 129 134 149 155 168 165 165 160 153 150
18 18 18 17 16 15 15 14 13 13 12 11 11 10 9 7 7 7 7 7 7 7 7 7 7 7 7 7 7 7 7 7 7 6 6 6 6 6 6 6 6 6 5 5 7 6 6 6 6 7 9 11 14 16 18 20 22 29 36 43 53 66 66 69 64 84 96 97 86 87 95 97 108 122 129 134 128 127 128 131 136 140 142 142 143 142 138 130 138 139 136 131 129 133 131 119 125 130 128 123 119 114 115 116 120 138 134 132 134 138 140 138 143 137 133 135 126 130 121 128 126 125 124 123 123 123 124 122 121 119 117 117 118 119 121 122 128 130 135 131 130 139 135 130 130 130 138 142 150 161 161 149 146 146 145 147 150 157 165 177 173 177 169 163 158 157 147 141 135 136 133 137 144 157 156 151 152 153 159 158 166 176 172 170 173 181 195 184 176 164 162 158 164 170 181 188 195 184 173 170 178 169 160 157 166 173 181 194 197 185 185 178 164 164 166 156 138 138 156 168 177 180 188 191 187 180 173 166 160 155 152 141 128 127 139 148 160 167 182 189 179 163 153 148 137 126 135 141 142 154 168 169 166 158 153 150
18 18 18 18 17 16 15 14 13 15 14 11 11 10 9 8 7 6 7 7 7 7 7 7 7 7 7 7 7 7 7 7 7 7 7 7 6 6 6 6 6 6 6 7 7 6 6 6 6 7 10 12 13 14 17 19 25 31 34 44 56 60 66 57 74 83 92 103 102 98 109 113 115 120 131 133 126 120 121 125 130 131 134 133 136 137 134 127 135 141 141 134 126 128 127 121 121 129 128 126 118 115 116 115 117 131 136 133 130 132 139 143 143 139 138 132 127 129 125 128 131 130 128 122 127 127 130 128 125 121 120 119 120 121 121 123 127 134 137 130 132 139 137 132 130 131 136 145 152 157 160 156 152 148 148 152 156 159 163 175 181 182 175 165 167 161 154 146 138 136 136 138 147 161 166 159 156 160 163 165 164 177 182 172 177 187 194 184 175 167 170 164 168 172 172 184 197 195 183 183 189 175 165 161 164 178 187 200 209 198 184 174 169 173 161 154 141 141 147 157 169 183 191 195 188 179 172 165 159 154 146 138 129 139 141 142 146 161 174 188 183 171 162 151 134 130 137 144 149 159 171 171 168 158 152 150
21 20 19 20 19 19 17 16 16 16 15 12 12 11 10 9 8 7 7 7 7 7 7 7 7 7 7 7 7 7 7 7 7 7 7 7 6 6 6 6 6 6 6 7 7 6 6 6 6 7 9 10 12 13 15 22 22 30 40 45 50 60 55 52 71 78 88 98 106 112 109 107 120 126 129 129 124 125 118 125 126 125 133 130 132 129 129 126 134 138 139 136 128 124 124 122 120 126 125 123 120 117 118 114 119 129 140 135 129 129 134 140 142 142 140 131 126 128 124 126 131 132 129 123 129 129 130 132 129 122 120 119 120 121 122 124 124 129 138 132 129 136 140 133 131 131 137 143 147 158 170 162 155 150 149 154 160 168 170 178 189 188 177 174 172 169 156 143 139 137 137 141 151 160 170 162 160 165 165 171 174 178 185 179 182 187 196 184 177 175 176 169 173 182 183 185 198 195 190 196 195 181 175 168 168 176 182 196 206 195 188 184 183 178 164 153 141 148 152 155 168 177 190 186 178 172 164 156 145 141 138 131 131 150 150 153 153 157 171 189 182 168 154 145 134 132 142 147 152 161 172 172 164 156 153 149
24 22 20 22 21 20 19 18 17 17 15 13 13 12 11 10 9 8 7 7 7 7 7 7 7 7 7 7 7 7 7 7 7 7 7 7 6 6 6 6 6 6 6 7 7 6 6 6 6 7 7 8 11 13 14 17 27 24 30 36 45 47 47 54 64 70 81 91 105 105 100 109 112 115 119 123 120 113 111 119 115 123 131 128 129 127 125 120 127 129 133 132 127 123 124 126 120 127 126 125 121 119 120 118 116 126 134 133 131 131 130 134 132 135 133 130 125 127 126 125 127 129 129 126 133 132 132 131 129 123 120 119 120 122 123 125 127 129 135 135 133 142 144 134 132 131 135 142 146 151 162 163 159 153 151 155 161 173 178 182 196 195 186 180 172 161 147 144 144 141 140 142 150 159 171 172 168 173 171 171 177 190 191 183 191 197 199 193 186 187 182 172 177 189 190 191 198 200 199 205 206 189 179 171 174 186 192 201 203 195 190 183 176 171 168 158 143 151 161 156 170 181 190 175 169 161 154 148 149 150 144 138 137 151 159 165 166 165 171 185 174 167 156 144 134 143 140 151 158 166 172 167 161 155 154 148
24 23 22 22 21 20 20 19 18 16 15 14 12 11 10 12 11 10 8 7 6 7 7 7 5 6 7 7 7 7 7 7 7 7 7 7 6 6 6 6 6 6 6 6 6 6 6 6 6 6 6 6 9 12 12 20 27 35 30 33 38 42 47 58 67 77 87 96 97 91 98 103 100 107 116 122 118 111 110 109 122 125 127 125 128 123 121 116 121 124 130 130 123 125 128 127 120 123 127 124 116 116 119 118 121 125 139 134 130 128 130 131 134 135 135 130 127 127 127 128 128 134 128 127 134 135 132 133 129 124 124 120 123 129 126 126 128 130 132 135 135 144 142 134 130 134 134 149 155 156 165 167 161 155 154 160 167 170 186 192 199 187 179 174 165 152 149 148 150 147 143 143 145 152 159 174 175 181 175 179 182 195 196 191 197 205 207 199 197 193 183 177 181 191 201 199 208 206 209 214 204 190 180 174 181 188 198 210 197 186 179 172 165 161 158 152 144 152 162 164 166 183 191 178 169 161 161 158 160 156 146 142 141 140 152 162 168 173 180 184 170 157 148 145 137 148 142 146 156 163 167 165 158 154 150 149
26 25 24 24 23 23 21 20 19 17 16 15 13 12 11 11 11 11 9 8 7 7 7 7 5 6 7 7 7 7 7 7 7 7 7 7 6 6 6 6 6 6 6 6 6 6 6 6 6 6 6 7 8 10 11 20 26 33 40 36 39 50 56 63 71 82 88 93 83 88 95 94 103 111 117 125 116 108 105 114 121 127 129 123 125 120 117 115 124 127 130 124 117 122 131 127 122 125 123 118 118 119 121 118 123 129 134 128 129 124 128 125 130 138 139 137 131 127 128 127 130 131 131 129 129 135 132 132 129 127 127 123 126 133 131 129 130 133 134 134 137 144 139 132 131 132 139 150 161 165 166 169 167 162 159 165 174 177 188 203 199 189 177 163 156 152 153 160 162 157 146 144 150 156 165 178 189 191 184 185 193 199 203 200 204 213 215 208 207 200 189 184 186 193 207 213 215 215 222 222 208 196 188 181 188 197 213 209 191 187 176 169 163 159 155 150 145 159 172 175 168 182 195 182 172 173 168 163 169 157 150 141 152 138 144 152 157 170 180 185 174 167 158 150 139 146 148 143 150 153 158 158 155 152 150 148
28 27 26 26 25 24 22 21 20 18 17 16 14 13 12 10 11 12 10 9 8 7 7 7 5 6 7 7 7 7 7 7 7 7 7 7 6 6 6 6 6 6 6 6 6 6 6 6 6 6 6 6 7 12 18 20 23 36 47 44 43 56 67 74 73 71 76 78 82 89 89 99 103 106 112 118 108 102 101 109 109 118 125 122 116 117 113 114 119 124 124 123 112 117 129 125 125 128 125 124 117 116 118 115 118 123 124 120 127 132 123 134 133 135 137 130 128 129 130 125 127 130 128 125 127 128 128 132 130 131 130 125 128 137 136 131 131 136 140 139 139 141 135 133 134 133 140 146 157 170 171 171 168 170 168 171 180 185 189 199 188 177 166 161 162 164 164 173 166 152 147 148 160 163 174 185 194 198 194 194 199 206 213 212 214 221 223 216 212 206 198 194 193 197 204 222 227 227 230 229 216 202 190 189 196 206 225 210 198 183 179 174 171 168 165 154 150 159 168 183 171 181 195 187 183 184 171 173 166 156 147 143 155 153 145 145 156 162 170 177 168 165 156 147 142 139 145 147 148 153 164 157 152 151 149 147
29 28 27 27 26 25 23 22 19 18 17 16 15 14 13 12 11 10 12 10 8 6 6 6 6 6 6 6 6 6 6 6 6 7 6 5 6 6 6 6 6 6 6 6 6 6 6 6 5 5 7 7 7 13 22 22 30 38 51 52 41 56 61 69 74 77 80 86 87 88 95 109 113 102 102 109 106 89 102 99 106 110 120 120 111 113 113 113 118 120 123 121 108 110 125 124 126 131 127 123 116 111 117 112 118 120 123 116 121 128 118 125 130 136 139 135 129 129 126 130 123 125 126 123 122 123 125 129 128 131 129 123 128 139 135 132 136 141 146 146 143 141 137 136 135 135 139 148 159 171 177 176 176 177 174 174 191 195 199 191 181 172 170 172 174 174 173 172 169 162 151 150 155 157 164 175 182 196 198 198 205 212 217 220 224 229 226 223 217 210 203 204 202 200 211 224 238 235 238 232 216 207 197 190 199 211 230 217 202 188 186 181 182 177 166 151 153 163 173 184 184 180 184 194 193 191 184 180 169 159 151 148 157 160 155 147 154 161 167 168 165 156 150 148 144 141 149 154 155 157 169 159 153 149 150 148
31 30 29 28 27 26 24 22 20 18 17 16 15 14 13 12 11 10 13 12 11 8 7 6 6 6 6 6 6 6 6 6 6 7 6 5 6 6 6 6 6 6 6 6 6 6 6 6 5 5 7 7 9 13 16 23 31 35 42 51 47 49 58 68 75 82 85 89 93 98 104 100 98 97 102 103 103 87 95 85 95 101 110 112 105 106 104 112 116 121 122 116 104 107 122 126 129 132 127 124 118 113 116 118 114 114 113 112 117 123 119 126 126 132 141 140 135 131 129 129 119 119 122 122 121 120 121 123 127 131 126 124 130 138 134 133 140 149 151 151 151 150 146 144 140 138 139 147 156 169 176 179 176 177 178 180 189 196 200 192 183 178 185 182 185 180 168 162 160 156 152 153 159 161 162 167 174 190 202 205 213 221 223 226 223 224 219 221 222 218 213 213 211 208 210 218 233 251 250 236 225 216 206 201 202 213 225 212 200 191 192 188 178 168 159 151 161 160 173 182 189 189 189 198 202 199 194 180 169 160 152 149 159 164 156 148 151 155 161 166 173 163 154 150 146 143 148 157 163 161 165 157 151 148 149 148
33 32 31 29 28 27 25 23 21 18 17 16 15 14 13 12 11 10 11 11 12 10 8 7 6 6 6 6 6 6 6 6 6 7 6 5 6 6 6 6 6 6 6 6 6 6 6 6 5 5 7 8 11 13 15 21 20 31 36 43 50 52 60 67 73 77 74 78 80 95 93 87 91 90 94 89 95 87 83 95 104 108 115 116 106 100 106 112 112 119 118 112 99 102 112 124 132 135 130 127 117 112 112 121 108 108 110 112 112 110 116 125 130 130 135 133 132 128 126 123 116 120 122 121 121 121 120 119 126 131 124 123 127 134 133 134 139 148 158 159 158 158 155 154 147 144 142 146 154 163 164 165 164 165 170 174 179 181 183 189 191 190 192 192 191 184 178 171 162 156 152 157 170 175 174 177 181 190 205 215 221 228 226 218 211 211 205 208 213 218 222 221 221 222 228 231 243 247 246 247 234 225 215 210 214 221 215 200 192 184 180 180 168 160 159 156 162 171 173 179 193 198 194 204 209 211 195 186 174 161 152 152 163 167 154 151 152 154 160 167 178 171 161 151 148 145 149 156 165 171 164 153 151 148 148 148
33 32 32 30 28 26 25 23 21 20 19 18 16 15 14 12 12 12 11 10 9 10 11 7 6 6 6 7 6 6 6 6 6 5 5 5 6 6 6 5 5 5 6 7 5 5 6 6 5 6 7 8 11 14 16 18 23 26 33 38 44 46 52 56 64 65 70 72 81 84 79 79 85 85 81 89 91 87 80 97 96 98 107 108 103 99 102 108 112 118 114 108 100 96 105 115 124 129 132 127 117 107 116 117 110 98 114 114 107 99 109 120 123 128 126 122 120 119 121 116 111 120 119 117 122 120 121 123 122 130 123 125 127 131 134 136 145 148 156 166 166 164 164 158 149 146 146 152 152 156 160 160 157 156 157 159 163 162 173 189 197 199 199 198 192 182 179 172 165 160 154 159 170 179 185 190 194 201 210 218 219 223 224 209 202 202 193 201 203 208 216 220 223 228 231 234 232 231 231 240 241 231 226 221 223 232 221 207 202 189 179 173 166 164 165 161 161 173 179 188 195 202 203 207 218 215 199 185 174 162 157 159 165 160 155 153 153 155 161 168 178 176 163 153 150 144 147 152 162 171 158 153 150 149 148 148
35 34 33 30 28 26 25 23 21 20 19 18 17 16 15 13 13 13 12 11 10 11 12 10 8 8 8 8 7 6 6 6 6 5 5 5 6 6 6 6 6 6 6 7 5 6 7 7 6 5 9 12 12 13 15 18 23 25 30 32 36 43 46 46 51 56 60 67 73 78 70 79 82 76 77 85 84 76 81 95 89 95 101 106 96 97 100 105 113 111 104 100 96 91 93 105 109 119 129 125 113 108 115 117 110 98 104 110 106 91 101 113 120 116 117 111 112 113 115 110 107 115 113 117 118 120 118 125 126 129 125 125 127 129 132 134 143 149 158 165 168 169 166 160 152 150 147 149 149 154 155 153 147 145 135 143 153 161 178 190 199 206 205 198 193 189 183 182 172 161 158 159 165 174 186 193 199 200 209 207 206 217 223 208 195 190 185 195 189 196 203 206 209 217 219 218 216 224 221 233 239 237 236 235 239 239 234 223 212 198 189 180 173 171 169 164 163 168 177 187 198 208 210 213 221 215 201 190 177 163 160 167 164 160 158 155 156 157 162 168 177 181 167 156 152 149 147 152 161 170 156 150 150 149 148 149
36 35 35 30 28 26 25 23 21 20 19 18 18 17 16 14 14 14 13 12 11 11 14 13 10 10 10 9 8 7 6 6 6 5 5 5 6 6 6 7 7 7 7 7 5 5 6 6 7 5 5 11 13 13 15 19 22 24 31 31 34 47 57 59 58 61 60 63 70 64 67 82 69 71 70 74 72 72 84 95 81 91 100 101 96 98 110 107 113 110 93 92 93 86 89 93 103 112 115 116 113 105 116 117 109 97 93 104 101 92 90 107 109 106 100 102 105 108 111 104 97 108 105 115 114 120 117 125 128 126 125 125 127 129 133 135 141 146 153 157 155 156 156 153 149 141 141 143 134 136 139 139 135 129 134 146 161 177 183 187 193 204 210 205 199 189 187 183 175 161 164 162 162 171 175 185 188 189 200 197 206 220 217 205 192 181 176 182 178 187 193 188 200 206 208 206 208 212 216 220 228 219 219 224 233 228 231 228 215 204 198 192 185 182 179 172 170 168 178 187 197 207 218 219 215 206 198 193 184 168 160 165 173 164 160 158 159 159 168 175 182 179 166 165 154 151 149 149 156 165 155 152 150 149 148 150
34 38 39 30 25 24 24 23 22 22 21 20 19 18 15 16 15 14 13 13 13 13 14 15 15 12 11 9 8 7 6 6 6 5 5 5 6 7 5 5 5 5 5 6 6 6 6 6 5 8 6 9 11 12 15 19 22 24 25 31 41 45 47 56 57 56 55 56 56 63 74 68 59 62 64 67 73 85 94 85 82 94 91 97 86 92 102 111 113 111 98 86 88 82 84 85 94 99 102 108 108 102 111 116 110 100 86 98 89 82 88 100 94 89 94 93 99 102 104 101 96 104 101 108 114 119 114 120 125 130 127 125 126 130 138 138 140 146 142 148 139 146 148 151 150 139 133 137 128 127 131 129 125 128 137 151 164 179 179 183 187 196 202 207 194 188 180 175 169 161 167 166 162 166 173 177 179 192 191 195 208 221 216 202 186 177 169 172 170 182 178 181 196 200 199 199 200 202 207 216 218 207 201 208 225 222 215 216 216 217 209 204 197 193 189 180 176 173 176 190 199 208 208 210 208 198 192 184 173 167 165 167 174 169 164 161 162 162 166 177 190 180 169 165 157 152 149 150 153 159 159 151 151 152 148 152
36 44 45 32 29 27 26 26 25 23 22 21 20 18 16 17 16 15 14 14 14 15 15 15 15 15 13 10 9 8 7 7 7 6 6 6 7 7 5 5 5 5 5 6 6 6 6 6 5 8 6 9 11 12 14 17 20 23 24 32 41 41 41 41 43 40 42 49 54 63 66 56 58 70 79 85 89 95 83 72 75 77 86 93 87 99 109 114 112 116 101 86 81 79 80 79 86 86 90 97 102 92 94 107 108 102 84 81 87 79 87 89 82 89 94 88 92 97 98 98 92 97 98 102 110 115 112 121 126 130 128 125 126 130 138 138 139 146 137 134 133 134 142 143 146 144 130 123 124 118 120 117 127 139 142 157 167 163 171 168 182 187 193 198 186 181 174 171 164 166 172 168 168 166 168 170 177 183 185 200 208 209 211 202 187 173 160 159 168 173 165 176 186 194 193 187 187 195 205 218 215 200 187 200 216 212 199 199 201 214 218 213 210 206 202 193 187 182 181 184 195 195 193 198 201 190 182 176 171 172 170 168 176 177 169 164 164 164 168 178 186 177 165 160 157 152 150 149 151 158 159 154 153 152 151 155
42 50 47 42 39 32 27 26 26 24 23 22 21 19 17 18 17 16 15 15 15 17 16 15 15 18 15 11 10 9 8 8 8 7 7 7 7 7 5 5 5 5 5 6 6 6 6 6 5 8 6 9 11 12 14 15 18 20 22 28 31 32 37 32 35 36 44 57 64 59 54 51 59 68 74 87 80 77 67 69 76 79 76 79 84 95 101 114 111 113 104 90 81 73 76 73 78 78 78 83 86 88 86 94 93 97 85 74 82 75 79 80 82 88 91 88 87 90 90 92 85 89 93 94 106 112 110 115 126 132 127 125 126 130 138 138 138 142 132 129 120 127 129 133 136 132 126 118 116 113 114 122 129 137 149 160 157 152 165 160 170 178 184 188 183 179 173 170 169 173 180 172 176 173 174 180 180 184 193 196 195 195 200 198 184 174 156 151 164 160 163 177 179 185 185 178 187 203 214 203 195 192 177 193 207 202 186 186 191 207 215 217 220 217 212 205 199 192 190 193 184 184 182 188 199 195 191 185 182 182 177 172 177 180 172 170 171 172 174 184 187 175 170 169 166 157 153 151 152 159 163 159 157 154 156 160
48 56 50 48 41 32 29 28 27 27 25 23 21 20 19 18 17 16 17 17 17 17 17 17 21 19 17 15 10 11 8 8 8 7 7 7 6 5 5 5 5 5 5 5 5 5 6 6 6 6 7 8 10 12 13 15 16 18 18 20 24 27 29 34 35 43 52 51 50 48 45 51 59 52 67 73 65 65 63 68 77 87 89 83 84 91 102 112 114 116 106 89 80 73 71 70 76 75 72 78 84 82 78 81 82 82 80 69 81 73 75 76 80 84 88 86 83 89 86 87 83 91 89 93 101 104 105 115 125 135 130 125 129 132 143 142 139 143 133 123 122 118 124 126 129 125 121 116 112 109 113 123 130 144 153 158 148 148 155 153 159 170 176 187 186 182 172 171 174 182 184 178 180 176 179 190 189 187 189 183 186 184 195 191 178 171 159 145 153 147 164 174 176 175 175 174 193 204 203 194 182 179 171 179 198 197 186 172 189 198 203 199 208 208 214 217 209 206 197 192 179 173 174 179 193 201 200 197 192 188 187 182 182 189 180 178 176 178 177 187 195 183 181 175 170 159 154 154 153 160 169 163 159 157 159 166
53 61 64 55 43 34 30 30 29 28 26 24 22 21 20 20 19 18 18 18 18 17 18 18 20 17 17 18 12 12 9 9 9 8 8 8 7 6 5 5 5 5 5 5 5 5 6 6 6 6 7 8 9 11 12 14 16 17 18 22 24 26 27 29 34 42 41 36 34 40 44 52 52 48 56 55 54 59 66 71 84 89 94 96 93 94 100 110 113 116 107 96 85 74 68 71 76 72 70 76 80 80 70 67 74 72 67 73 77 71 70 74 75 75 79 80 85 86 83 82 79 88 87 97 98 104 107 117 127 134 128 127 133 132 146 146 140 143 131 121 115 114 120 117 125 126 128 117 111 105 119 118 125 139 143 145 148 135 141 145 156 161 169 187 189 182 180 180 180 188 192 189 189 179 184 188 184 178 176 172 173 177 190 187 174 166 159 142 143 146 161 164 170 169 164 176 184 189 186 194 177 164 164 179 190 185 176 169 180 192 190 188 195 197 202 206 211 213 195 184 173 163 165 177 189 193 204 201 202 199 195 192 191 194 188 185 183 184 184 192 201 194 184 174 165 159 157 154 153 158 169 170 163 164 164 163
61 66 60 52 40 35 33 32 31 29 27 25 23 22 21 22 21 20 19 19 19 17 18 20 23 18 20 21 15 13 10 10 10 9 9 9 8 7 6 5 5 5 5 5 5 5 6 6 6 6 7 8 8 10 11 13 15 16 20 24 24 26 25 22 28 31 29 31 34 37 39 44 43 46 45 50 59 67 70 69 75 79 93 96 100 99 100 111 115 116 103 96 85 74 69 66 71 72 66 68 78 77 70 69 79 70 65 75 75 73 67 69 70 73 76 74 81 85 90 83 76 84 80 91 98 111 115 116 125 135 130 127 134 137 146 143 140 144 130 122 118 110 113 107 116 118 124 118 107 106 113 110 125 124 125 136 137 130 145 149 146 161 171 183 189 185 184 183 183 189 192 193 192 184 186 180 175 169 167 164 163 172 181 183 173 161 154 144 134 152 152 155 164 162 160 163 167 174 175 186 179 160 160 172 177 174 171 158 175 186 176 175 182 186 191 192 200 209 195 173 164 156 161 177 176 189 190 195 193 196 199 200 202 204 199 196 193 193 193 199 203 192 180 170 165 159 161 158 156 157 164 171 171 170 165 158
69 65 52 45 38 36 33 35 34 30 28 25 23 22 21 22 21 20 21 20 19 19 20 22 23 20 23 21 20 15 12 11 10 10 9 9 8 7 6 5 5 5 5 5 5 4 4 6 5 5 7 7 9 10 11 12 13 15 18 21 23 25 24 23 26 27 29 32 36 35 37 42 43 52 50 55 52 55 59 61 63 70 85 95 97 102 102 110 115 118 111 98 83 75 68 63 65 69 67 63 72 67 65 66 72 69 63 67 70 71 63 67 66 72 77 72 75 85 90 83 74 77 85 91 95 105 120 118 125 134 137 130 131 139 145 141 143 149 140 130 119 109 103 106 108 110 112 113 108 102 106 115 118 115 124 136 131 128 142 138 146 156 173 187 190 187 183 176 179 180 182 184 190 191 185 169 164 162 156 155 158 174 178 176 173 165 151 142 133 141 146 149 160 159 155 152 158 163 169 174 172 157 154 161 165 171 160 150 167 176 169 165 173 174 178 182 193 202 190 169 158 152 155 167 169 188 183 186 180 188 192 195 202 201 199 201 199 199 201 206 199 192 177 171 164 164 169 161 158 159 162 167 173 170 159 151
77 68 55 46 40 37 35 36 34 30 28 26 25 24 23 24 23 22 22 21 20 20 21 22 19 20 21 24 22 15 13 12 11 11 10 9 8 7 6 5 5 5 5 5 5 4 4 6 5 5 7 7 9 9 10 11 13 14 17 19 20 24 22 21 24 27 28 30 30 35 42 48 55 59 60 61 64 65 67 71 69 69 76 79 87 99 105 103 103 109 108 99 93 81 69 61 60 61 62 62 67 67 59 62 66 66 58 59 69 69 64 61 61 69 74 67 74 83 86 79 72 86 91 96 102 104 117 119 125 134 137 134 137 141 147 144 143 141 131 127 124 117 107 103 103 106 104 105 106 99 101 115 107 112 119 126 124 129 127 139 155 165 174 180 186 180 174 172 170 171 169 173 186 191 180 163 154 150 146 147 158 166 172 172 167 164 158 147 130 130 141 147 155 153 154 146 144 150 163 173 174 159 144 142 149 166 153 146 152 172 163 154 157 161 167 173 189 196 185 173 156 149 154 156 167 180 174 174 171 180 183 185 192 192 189 193 193 196 205 210 199 185 177 171 167 168 175 170 165 163 165 169 167 162 155 143
84 69 54 48 41 39 37 37 34 32 31 30 27 26 25 26 25 24 23 22 21 21 21 21 18 22 22 23 22 17 14 13 12 12 11 10 8 7 6 5 5 5 5 5 5 4 4 6 5 5 7 7 8 9 9 10 12 13 16 16 17 17 20 23 23 26 27 29 32 32 35 38 47 53 56 59 62 66 68 73 76 76 78 79 82 86 92 89 90 93 103 94 89 81 73 62 57 59 60 58 61 63 60 57 60 62 55 60 68 61 63 59 62 67 67 66 73 78 84 82 71 77 87 94 105 109 119 119 123 127 131 133 136 142 148 145 143 142 131 118 112 108 100 98 97 101 97 101 99 94 103 114 108 112 115 115 115 115 123 138 148 153 159 171 180 172 164 166 162 166 157 165 175 180 172 162 158 147 142 149 157 160 167 166 162 162 151 144 129 129 141 147 150 147 140 132 142 154 170 181 178 167 154 135 140 157 152 138 147 165 158 148 147 145 154 169 179 183 170 164 150 147 142 153 163 169 167 166 162 171 174 175 182 182 179 181 180 189 199 202 201 189 182 179 174 171 181 179 172 169 170 173 163 152 148 140
80 66 57 48 45 40 39 43 37 37 34 30 29 26 25 26 27 25 24 23 22 21 21 21 22 23 24 23 26 20 15 14 12 11 10 9 8 7 6 7 6 5 5 5 5 5 6 6 6 6 6 6 7 8 9 10 11 12 14 15 16 18 19 21 22 24 26 26 30 30 35 44 47 44 40 53 67 68 72 76 84 83 84 87 87 89 83 78 80 95 97 94 88 78 69 60 55 56 54 55 59 56 57 56 56 56 53 63 64 58 58 58 60 62 65 64 78 82 84 82 72 72 83 93 104 107 117 112 116 115 121 131 136 145 148 143 145 137 127 122 109 109 107 100 93 90 91 97 94 96 103 107 101 103 106 110 117 127 132 129 139 150 164 179 173 161 155 151 156 159 149 160 168 174 166 164 155 148 139 145 155 153 161 161 157 158 150 139 126 127 132 136 144 144 133 137 147 157 167 182 184 175 157 142 134 141 143 134 148 152 153 140 139 149 158 166 176 183 173 160 146 142 140 150 152 160 163 160 152 167 165 170 176 175 171 170 174 184 194 195 196 190 186 188 182 177 183 185 179 175 174 166 160 150 138 133
71 63 55 51 45 41 43 46 43 37 35 30 29 26 28 27 28 26 25 24 23 22 22 22 22 23 24 27 27 22 16 14 13 12 11 10 9 8 7 7 6 5 5 5 5 5 5 5 5 6 6 6 7 7 8 9 10 11 14 14 15 16 19 20 22 24 25 26 29 29 39 51 45 33 39 58 66 70 74 77 79 85 84 84 89 82 76 74 78 89 83 78 79 79 73 60 57 53 53 58 63 54 52 53 52 52 53 55 55 53 54 55 56 53 60 67 79 81 85 81 69 72 77 89 97 97 106 102 108 102 114 122 128 138 142 139 135 136 132 127 123 125 115 113 104 94 86 88 88 94 98 92 100 110 115 120 125 128 143 146 146 151 163 173 168 156 146 140 152 149 141 156 164 171 163 156 151 144 133 137 146 146 153 152 150 150 149 136 120 118 128 135 136 139 121 132 134 160 168 173 176 175 160 147 130 127 131 130 138 139 138 135 134 150 160 166 168 174 171 159 143 136 134 140 148 152 157 149 151 159 157 167 174 168 163 161 167 178 186 187 189 186 180 178 183 183 184 192 188 177 170 161 158 148 137 130
64 63 59 51 45 47 49 50 43 41 37 34 36 31 29 28 29 27 26 25 24 23 23 23 22 23 24 27 24 20 17 15 14 13 12 11 10 9 8 7 6 5 5 5 5 4 4 4 5 6 6 6 6 6 7 9 9 10 13 13 14 16 18 19 20 23 24 24 32 36 48 50 37 27 34 42 49 58 63 61 65 71 81 85 88 81 68 63 72 94 95 81 66 64 69 63 54 50 50 55 62 58 52 48 48 48 49 56 55 50 52 54 55 56 58 65 73 68 64 75 68 69 76 88 88 87 94 95 95 94 101 107 116 134 128 126 123 123 123 124 121 122 110 103 98 95 84 84 89 93 100 109 112 120 127 129 138 134 144 156 161 163 173 177 164 154 143 137 145 141 139 147 162 173 164 154 141 138 131 133 140 142 150 145 146 140 136 130 116 119 127 134 126 132 123 119 134 151 163 155 176 173 162 153 145 128 128 124 122 123 126 128 141 153 153 154 159 169 164 156 142 134 132 133 145 145 153 142 150 149 155 164 166 162 157 153 163 173 180 180 178 177 171 167 168 180 187 193 182 172 161 155 151 147 141 134
61 54 53 48 51 51 56 52 48 43 41 38 37 31 29 31 29 27 26 25 24 24 24 24 23 23 23 23 22 20 20 18 15 12 13 12 10 9 8 7 6 5 5 5 5 5 5 5 5 4 5 6 7 7 7 8 9 10 12 13 14 15 16 17 20 21 22 26 22 39 47 43 26 23 29 46 57 54 50 54 63 70 66 70 74 73 68 68 82 88 91 89 80 63 55 57 53 50 49 54 59 57 51 48 46 47 49 49 54 48 52 53 51 59 63 62 65 60 62 71 68 64 81 82 78 82 84 86 88 89 98 104 116 134 128 120 112 110 107 112 104 113 109 102 93 85 82 93 100 107 115 120 124 131 133 142 148 145 144 154 170 174 180 172 163 151 138 130 137 132 133 147 160 172 168 155 141 128 126 125 133 134 145 141 138 130 126 128 112 117 130 131 117 126 122 113 123 141 152 153 165 177 166 155 146 128 118 130 117 119 121 129 134 146 145 150 155 163 164 152 142 134 128 128 135 138 146 135 146 141 153 162 157 154 149 148 160 166 174 175 168 169 161 159 167 173 183 187 175 167 154 148 145 142 139 133
58 56 52 51 55 56 63 51 51 46 43 39 34 36 31 32 30 28 28 27 26 25 25 25 25 24 23 23 22 21 21 19 17 15 13 12 10 9 8 8 7 6 5 5 5 5 5 5 5 4 5 6 7 7 7 8 9 10 12 12 13 15 15 16 19 20 20 21 23 27 27 32 30 18 33 42 43 42 34 45 56 64 62 65 63 63 61 65 73 77 78 77 81 76 61 53 52 49 45 49 52 55 51 46 44 45 46 46 50 50 50 49 55 56 54 55 56 54 58 69 65 65 75 73 70 73 74 78 89 98 109 120 131 141 133 119 111 103 100 97 95 104 101 96 94 83 83 95 107 108 109 118 129 131 144 151 156 154 157 162 174 182 180 167 160 151 140 127 124 126 132 144 159 173 170 156 146 137 129 121 125 136 142 135 130 129 118 118 105 115 127 121 114 120 110 113 127 137 139 139 158 176 163 157 146 137 117 118 119 117 120 122 134 143 139 144 153 164 165 152 142 135 130 123 125 130 135 131 139 141 154 157 150 147 139 142 154 160 166 166 159 159 153 153 161 162 175 182 170 160 155 147 140 136 135 127
61 57 58 56 62 63 67 61 53 50 46 41 40 36 32 33 31 29 30 29 28 26 26 26 27 25 24 23 23 23 22 21 20 19 14 11 10 9 8 9 8 7 6 5 5 5 5 5 5 4 5 6 7 7 7 8 9 10 11 11 12 14 14 15 17 17 18 20 20 17 19 30 27 18 31 32 37 36 32 46 58 58 58 63 60 60 57 58 61 75 69 71 69 74 72 56 48 50 44 45 47 56 53 44 42 44 44 44 48 49 48 50 50 48 45 47 48 50 58 67 58 62 66 65 68 74 77 89 93 98 110 121 125 130 133 124 122 111 107 96 91 92 97 93 86 77 86 97 101 99 108 115 118 123 134 143 146 158 166 175 177 175 168 157 153 148 140 131 119 118 129 143 156 172 174 159 151 144 131 118 121 131 132 134 124 121 117 110 105 121 130 118 106 109 107 124 124 126 131 145 160 161 159 155 152 138 126 112 116 112 115 118 131 136 134 142 153 161 161 151 143 137 131 123 119 123 126 126 135 143 147 144 141 141 132 140 145 154 159 158 151 149 146 148 151 157 173 180 164 155 148 145 141 133 128 124
63 61 64 65 66 75 70 62 58 56 49 43 38 37 38 36 32 31 31 30 29 27 27 27 28 24 23 26 23 23 23 20 17 18 14 15 10 9 9 8 8 6 6 7 5 5 5 5 5 5 5 5 6 6 6 8 8 8 9 10 11 12 13 14 16 17 18 19 18 17 22 28 23 19 19 20 30 24 42 52 55 56 59 58 55 59 52 53 62 69 65 69 60 67 65 54 45 46 40 43 41 51 49 41 41 41 45 46 47 49 45 51 45 41 40 43 42 51 65 60 56 58 59 65 72 82 86 90 88 100 114 120 113 129 136 138 129 123 113 104 98 90 80 81 77 75 85 91 88 91 100 106 109 120 130 134 143 155 169 177 167 162 161 152 141 136 133 125 125 119 134 148 159 172 174 164 160 148 135 124 117 122 122 136 127 112 112 103 108 125 126 117 101 105 114 117 119 134 138 139 145 155 148 139 143 147 131 116 107 111 103 121 122 127 129 138 152 154 152 147 143 144 133 123 116 120 119 125 127 138 140 135 136 128 127 140 134 146 153 149 143 142 136 141 146 155 165 171 159 150 142 137 136 133 123 120
69 64 68 67 75 77 67 61 65 59 53 47 43 38 45 51 38 33 32 31 30 28 28 28 29 25 24 23 26 23 20 19 19 18 16 16 10 10 10 9 8 7 7 7 6 5 5 5 5 5 5 5 6 6 6 8 8 8 9 9 10 12 12 13 15 16 16 17 16 15 18 25 18 14 11 13 14 20 35 42 55 58 58 56 50 54 47 58 68 67 59 62 54 64 60 50 42 43 40 41 43 46 42 39 39 39 41 44 43 53 45 45 43 40 39 42 45 54 61 52 53 59 64 72 75 80 83 81 88 101 110 111 104 117 124 125 140 134 124 117 104 92 84 82 77 73 76 78 80 83 90 95 103 113 117 123 137 153 166 166 154 152 158 150 137 127 121 119 112 121 134 148 157 166 170 169 158 144 131 121 109 113 119 130 126 114 105 99 108 116 122 108 96 102 105 112 122 125 123 134 151 162 152 138 131 136 133 122 107 103 110 119 117 118 123 136 145 145 145 139 136 138 135 129 117 114 117 123 131 139 132 128 128 123 133 133 130 142 147 143 136 134 131 135 139 148 158 171 163 154 145 136 129 129 129 124
74 65 69 70 77 78 76 72 68 58 52 46 40 40 45 46 41 35 33 32 31 29 29 29 30 26 25 25 24 23 24 22 20 17 18 17 11 11 11 10 9 8 9 8 7 6 5 5 5 5 5 5 6 6 6 8 8 8 8 8 9 11 11 12 13 13 14 15 14 13 15 15 16 13 12 19 21 20 25 29 39 50 54 51 42 48 43 56 57 59 58 53 56 61 54 45 38 40 40 38 40 36 36 37 37 37 40 36 44 46 46 39 39 37 38 41 44 49 52 50 53 61 71 76 70 70 69 77 91 107 110 100 94 102 107 118 128 123 118 119 117 109 100 91 77 69 75 85 92 95 99 102 105 110 115 131 141 155 157 158 151 143 151 154 139 124 114 111 106 121 131 143 152 158 160 165 155 141 126 119 109 106 112 120 123 116 104 96 102 114 121 108 97 100 107 106 111 112 121 135 144 163 159 147 129 122 119 115 109 99 110 112 112 119 126 136 139 136 136 132 130 136 131 125 117 110 118 123 133 137 126 122 122 119 125 126 127 134 138 133 130 126 128 131 140 152 164 173 163 153 147 137 128 124 126 120
77 69 68 77 82 86 81 75 63 60 54 48 43 41 38 39 37 36 31 30 29 29 29 29 29 28 28 25 24 23 21 20 19 16 18 14 13 13 11 10 10 8 9 9 7 7 8 8 7 5 3 3 5 6 7 6 7 8 8 8 8 10 10 10 10 11 12 12 12 12 10 7 9 11 12 13 14 26 36 41 44 51 48 47 33 44 38 50 56 50 52 52 53 58 53 41 37 36 37 38 38 34 33 38 36 37 38 36 34 43 43 40 40 37 39 39 43 47 48 49 51 57 61 63 59 62 72 88 100 103 108 93 83 92 109 127 120 114 104 104 109 100 98 88 72 69 81 94 102 108 110 116 117 124 129 132 146 156 145 149 146 134 146 155 144 127 112 105 109 121 129 138 150 150 149 159 156 137 132 125 118 102 105 112 113 111 102 94 102 115 118 109 95 94 95 103 113 124 132 140 157 163 164 149 134 131 118 111 105 97 109 105 118 125 134 143 137 129 129 123 125 135 125 118 113 107 120 128 132 132 126 118 116 117 118 121 122 127 128 129 124 122 126 134 145 154 162 163 157 146 139 138 127 120 121 115
83 72 73 82 81 84 78 70 61 55 52 46 43 41 41 41 36 35 33 32 31 29 29 29 32 29 26 25 24 23 22 21 20 17 20 16 14 13 12 11 10 9 9 9 7 7 7 7 7 5 4 4 5 5 6 6 6 7 7 7 7 9 9 9 9 10 11 10 10 10 9 8 7 9 10 10 11 12 29 38 41 38 35 37 28 41 33 42 48 46 52 54 47 51 50 41 36 35 35 36 35 33 33 36 37 41 36 35 34 45 38 37 39 35 41 44 43 46 46 47 50 51 53 56 59 70 80 95 93 85 96 85 75 92 109 123 117 107 92 94 107 87 80 74 68 70 78 84 91 106 116 126 130 136 142 149 149 139 136 144 136 130 143 149 146 130 115 99 105 113 122 131 143 143 146 145 151 144 135 130 121 107 99 108 109 107 98 91 108 122 111 98 87 94 103 111 122 133 146 154 158 154 159 156 146 137 127 119 111 97 104 109 120 129 134 135 137 130 120 117 123 133 124 116 109 108 118 122 126 126 121 116 111 111 115 116 119 122 119 117 119 118 124 132 143 149 153 154 152 146 135 128 128 119 116 112
77 75 75 78 75 80 75 66 61 53 50 46 45 43 47 45 35 33 32 31 30 29 29 29 30 29 26 25 24 23 23 22 21 20 22 18 16 14 13 12 11 10 9 9 7 6 6 6 6 6 5 4 4 5 5 5 6 6 6 6 6 8 8 8 9 9 10 8 8 8 8 8 5 7 6 5 5 6 15 24 25 31 30 27 25 27 33 41 43 42 47 46 48 51 47 42 36 32 33 34 32 30 32 33 35 40 34 33 34 38 36 36 36 39 40 51 45 45 44 46 48 51 52 57 62 71 82 93 83 77 92 81 68 87 103 112 108 100 86 84 97 99 82 77 67 67 75 83 97 106 106 121 125 128 135 139 142 135 131 134 128 121 135 140 144 129 115 101 96 104 116 125 138 132 138 135 147 148 142 135 124 112 98 94 98 99 90 94 110 125 112 98 87 98 101 108 120 137 150 149 142 142 149 147 149 137 126 118 105 95 103 111 119 124 127 129 135 129 116 114 122 128 120 114 105 110 113 116 122 121 117 114 111 110 111 116 125 128 120 114 117 117 123 133 138 137 143 146 148 137 132 126 122 116 111 112
81 80 78 71 70 73 73 62 60 55 51 47 48 45 57 44 37 32 33 32 32 31 30 29 31 30 28 27 26 25 21 21 21 21 19 16 15 15 13 14 13 12 10 9 7 7 7 5 5 6 7 6 3 4 5 7 8 7 8 6 5 6 7 7 9 9 9 7 7 7 7 6 5 6 5 4 3 7 14 18 16 15 16 21 31 35 34 36 36 40 44 37 46 58 52 44 36 32 32 32 32 30 32 31 35 35 30 32 33 36 33 35 40 37 38 40 41 42 43 44 46 50 55 62 70 73 86 88 73 70 84 66 64 78 97 110 100 93 84 75 84 97 97 85 69 64 78 84 95 97 98 109 104 111 118 119 128 132 121 129 118 119 124 135 134 133 118 105 90 104 111 121 135 125 125 133 137 143 148 141 128 117 104 89 87 92 82 99 114 124 110 95 85 99 110 117 126 142 136 134 128 133 137 140 142 136 123 113 100 90 102 106 114 112 126 123 126 119 115 111 123 122 113 111 104 102 108 110 119 120 111 109 109 105 112 119 130 123 119 111 113 116 122 132 129 131 133 141 147 137 130 121 117 113 110 109
82 80 78 74 70 67 66 59 57 52 49 46 48 55 58 42 40 35 36 35 34 32 31 30 30 29 28 25 24 24 24 23 22 19 18 19 16 15 14 14 13 11 10 9 8 7 7 5 6 7 8 7 3 4 5 7 8 7 7 7 6 6 6 5 6 6 6 6 6 6 6 5 4 5 4 3 4 5 8 11 10 12 15 22 24 25 26 29 34 40 33 40 51 47 50 42 34 30 30 30 31 29 31 29 32 31 30 32 33 34 33 34 33 34 35 38 39 40 42 43 45 48 65 73 76 84 89 86 71 61 73 62 73 88 105 98 94 91 84 75 81 96 97 85 69 62 71 77 86 85 96 95 93 105 103 105 119 126 117 118 116 112 122 133 125 122 119 108 90 92 104 117 123 117 116 123 128 133 138 144 136 119 110 99 87 84 82 100 116 115 107 92 84 98 103 108 122 134 127 122 120 123 128 132 138 131 117 114 100 90 100 103 108 108 120 117 121 113 108 109 117 124 117 108 99 99 103 104 112 114 108 106 101 108 117 127 132 119 113 107 112 118 124 131 125 123 128 132 141 135 128 120 116 112 108 107
88 83 77 75 72 66 63 61 60 52 50 48 53 63 61 49 39 35 36 35 34 33 32 31 29 29 29 26 25 24 24 23 20 21 20 19 17 16 15 15 14 13 11 10 9 8 7 5 5 6 7 6 3 4 5 7 8 7 8 10 10 9 7 5 6 6 6 5 5 5 5 4 3 4 3 2 4 4 8 8 13 19 18 19 20 22 30 33 31 27 35 42 44 49 51 42 33 28 28 28 30 28 30 29 31 29 27 29 32 31 33 31 29 33 34 36 37 38 41 43 45 50 59 62 67 77 79 76 74 58 67 61 71 82 96 97 89 81 76 68 78 97 96 87 71 62 62 68 73 80 91 86 89 96 89 103 108 121 118 110 106 112 122 129 117 116 114 104 91 86 101 113 116 104 105 112 119 123 126 140 135 126 117 106 94 81 86 104 110 106 104 92 82 89 98 111 119 131 121 114 113 113 120 124 128 128 119 115 105 92 91 96 100 102 114 113 117 109 103 112 120 128 120 113 105 95 96 103 107 110 108 100 101 109 116 125 122 116 108 106 114 122 131 127 120 117 121 131 141 136 128 120 114 109 107 105
92 82 79 78 76 70 64 66 59 54 52 50 58 71 63 51 40 37 36 35 34 35 33 31 30 29 28 27 26 25 24 23 22 22 21 19 19 17 16 17 16 14 11 10 8 8 8 6 5 3 5 5 5 4 3 4 5 6 7 10 9 9 9 8 4 4 4 4 4 4 3 3 3 2 2 2 3 6 7 7 6 10 22 25 25 27 31 30 20 27 30 33 40 43 44 42 35 27 28 29 27 27 27 26 31 33 28 29 30 30 30 30 32 33 34 36 37 38 39 40 42 45 45 55 66 70 67 65 68 58 57 54 77 73 91 98 93 95 84 67 79 90 83 89 70 61 56 65 66 74 83 81 81 84 87 95 100 114 115 109 102 108 121 120 110 110 105 94 90 88 99 114 119 104 98 99 111 117 124 139 127 124 118 106 98 84 84 93 101 98 98 88 83 95 102 108 124 126 117 107 103 106 114 117 120 120 125 120 112 95 85 90 91 97 109 107 112 103 103 112 121 132 133 123 109 103 93 98 99 107 104 94 106 115 122 118 114 109 106 104 116 127 135 124 117 116 120 126 134 135 129 121 115 107 105 103
89 91 88 83 77 70 70 67 59 55 52 51 61 66 56 44 38 38 37 36 35 35 33 31 30 29 28 27 26 25 24 23 22 21 20 19 20 17 17 17 16 14 11 10 8 7 7 6 4 4 5 6 6 5 5 5 5 5 6 9 8 7 6 5 4 4 4 3 3 3 3 3 3 2 2 2 3 4 5 5 4 6 16 29 29 30 30 28 19 22 29 41 44 46 47 38 35 32 24 26 26 26 26 28 28 26 26 27 28 29 29 29 31 32 33 34 35 36 37 40 42 44 57 61 73 64 60 57 68 58 49 66 61 73 86 90 83 86 83 65 72 83 74 77 84 74 60 56 62 72 74 74 76 78 84 86 99 110 111 104 96 106 115 110 99 101 101 86 84 80 95 113 122 108 93 93 106 107 115 130 123 112 111 99 91 81 78 91 92 87 83 83 83 91 98 106 122 117 109 104 97 105 105 108 114 120 123 119 107 96 86 83 84 90 101 100 103 99 99 102 112 125 132 129 119 109 94 91 96 99 93 101 110 125 129 123 112 106 104 107 113 125 128 121 113 113 113 118 123 128 124 123 120 109 102 101
99 97 89 86 79 74 67 63 60 56 53 52 60 59 49 41 38 39 38 37 36 35 33 31 30 29 28 27 26 25 24 23 22 20 20 20 21 19 18 18 16 14 11 10 8 7 6 5 4 5 6 6 5 5 4 5 5 4 6 8 7 7 6 5 4 4 4 2 2 2 3 3 3 2 2 2 3 3 3 5 2 3 9 13 19 23 21 22 14 22 29 31 32 34 35 30 33 31 26 25 25 25 25 27 28 26 24 25 26 28 28 28 30 31 32 33 33 34 35 38 42 47 50 56 66 55 53 48 62 53 48 62 55 68 75 78 74 73 74 63 64 75 68 69 80 78 66 55 62 69 71 68 67 66 73 84 98 114 112 104 95 99 108 104 93 91 96 84 78 80 99 111 116 110 96 89 98 100 112 123 118 111 103 95 92 79 75 86 81 77 75 70 78 85 98 106 116 110 100 96 91 97 102 109 108 109 118 119 108 102 95 87 79 82 92 92 100 94 91 99 109 117 123 126 123 112 100 88 90 90 94 107 119 123 126 127 116 103 98 107 117 121 123 117 109 109 110 115 116 120 116 119 119 110 101 100
88 88 88 83 75 70 66 63 61 57 53 55 62 52 45 42 41 40 40 38 36 35 33 31 30 29 28 28 27 26 25 24 23 21 21 21 22 17 16 18 15 15 11 10 8 7 7 5 5 5 5 6 4 4 2 5 5 5 5 6 7 6 5 4 3 3 3 3 3 3 3 3 3 3 3 3 3 2 1 3 3 3 4 6 4 7 8 9 9 14 16 16 18 19 20 22 24 21 22 23 25 24 23 25 27 26 22 24 25 27 27 27 29 30 31 30 31 29 36 43 38 39 48 58 54 53 44 46 52 49 45 52 55 60 65 69 76 66 61 60 55 66 63 66 71 74 65 57 52 62 60 60 69 71 81 88 103 120 112 101 94 91 103 96 90 83 90 84 69 84 100 108 109 104 99 82 85 96 112 114 112 106 97 97 92 84 74 82 70 68 76 76 90 97 106 114 114 107 99 88 95 98 106 103 101 103 121 124 121 112 103 92 84 78 89 83 92 88 86 94 101 113 112 119 115 111 106 95 85 88 96 110 117 115 118 122 110 105 95 104 112 107 122 112 106 106 108 109 110 112 112 112 116 109 99 96
87 83 80 78 73 72 70 65 60 57 55 60 65 52 45 43 42 41 41 39 37 36 34 32 30 29 28 28 27 26 25 24 23 22 21 21 21 17 18 19 15 15 12 11 8 7 7 5 4 2 2 2 2 5 4 4 5 5 6 6 6 5 4 3 3 3 3 3 3 3 3 3 3 3 3 3 3 2 1 1 1 1 2 4 2 4 5 6 6 7 7 7 12 14 15 17 19 20 21 22 22 21 21 22 20 21 23 20 25 26 26 26 27 28 29 28 35 34 39 40 33 43 56 50 49 46 39 37 44 48 46 48 49 54 56 60 68 63 58 55 51 59 55 57 61 61 65 58 49 52 55 69 75 84 83 87 96 105 108 100 91 86 91 90 81 76 82 80 68 83 96 98 97 93 89 77 86 99 106 107 105 100 87 86 84 76 67 72 64 72 79 78 92 106 112 108 105 105 97 87 89 99 98 99 99 101 108 116 120 116 113 104 90 76 78 80 81 82 88 97 104 109 107 115 110 102 98 91 84 91 101 107 110 107 113 119 105 101 97 106 103 110 109 108 103 105 106 107 108 107 107 108 111 107 102 100
85 81 78 74 70 69 68 64 61 58 56 59 62 49 46 44 43 42 42 40 38 37 35 33 30 29 28 28 27 26 25 24 23 23 21 20 19 19 20 20 17 17 13 12 9 8 7 5 4 2 2 3 2 5 3 2 4 5 6 6 5 4 3 2 3 3 3 3 3 3 3 3 3 3 3 3 3 2 1 2 2 2 2 3 2 3 4 4 5 3 4 6 10 12 16 17 20 19 20 21 20 21 22 25 20 20 22 22 27 25 25 25 26 26 27 32 35 32 33 32 31 48 55 46 41 44 43 38 46 45 43 42 40 45 49 56 69 70 64 54 50 53 49 53 57 64 69 62 53 49 59 72 77 87 77 79 81 97 94 94 97 84 91 83 76 72 76 73 67 81 91 89 89 83 81 74 84 93 95 100 98 94 84 79 78 72 66 66 67 74 78 85 92 107 103 101 102 98 91 82 87 99 89 93 92 94 101 114 109 109 107 103 92 84 75 75 76 79 85 93 98 101 103 115 109 100 95 89 81 89 98 97 101 104 114 113 104 96 94 100 104 103 109 102 100 104 103 104 105 104 104 104 107 103 101 102
80 77 74 73 69 67 63 62 59 58 54 57 55 50 47 46 45 44 42 40 38 37 35 34 32 30 28 28 27 26 26 25 24 22 21 20 20 20 22 21 19 16 14 12 10 8 7 5 4 3 3 3 3 3 3 2 3 4 6 5 4 3 3 3 3 3 3 3 3 3 3 3 3 3 3 3 3 2 1 2 1 2 3 3 3 2 2 2 3 6 9 10 11 12 14 15 16 17 18 19 20 19 18 19 19 19 21 29 32 25 22 25 27 27 27 29 29 24 29 26 35 45 42 46 40 38 40 33 44 48 37 38 44 53 61 65 71 63 59 62 49 48 51 47 58 67 62 56 61 47 66 67 69 78 66 69 82 86 81 82 83 83 75 86 71 67 71 69 68 80 80 86 85 75 73 72 81 83 90 93 90 89 85 72 72 66 61 63 68 75 83 90 93 102 98 96 96 92 84 81 89 93 82 90 84 89 97 114 109 100 94 90 88 79 73 69 71 79 85 89 93 93 100 112 101 95 87 89 82 83 90 92 93 103 114 111 102 89 90 92 97 104 99 100 99 100 100 103 101 103 104 104 105 104 101 103
79 76 74 72 70 70 67 63 58 58 55 56 54 50 47 46 45 44 42 40 38 37 35 34 32 30 28 28 27 26 26 25 24 23 22 21 20 21 22 22 21 18 15 13 11 9 7 5 3 3 3 3 3 3 3 3 3 4 5 4 3 3 3 3 3 3 3 3 3 3 3 3 3 3 3 3 3 2 1 2 1 2 3 3 3 2 2 2 3 5 7 9 10 11 13 14 15 16 17 18 19 18 18 18 18 18 18 25 27 22 22 24 25 25 25 26 22 25 24 27 38 40 34 39 38 34 31 27 34 38 33 36 47 53 56 61 72 64 54 56 51 45 51 44 53 62 69 59 48 47 53 57 63 71 62 66 78 76 72 72 74 77 76 71 68 63 67 64 67 73 74 76 78 78 69 71 78 80 87 92 89 80 79 75 65 66 60 62 68 79 82 88 101 97 91 84 88 86 81 72 85 86 79 81 83 93 99 112 113 104 97 90 87 80 75 70 70 75 82 82 85 89 105 108 105 91 87 81 80 81 86 91 95 100 108 106 98 89 88 94 100 106 103 97 98 97 104 106 102 108 109 110 107 103 97 101
78 75 73 75 73 72 66 62 58 57 56 54 52 49 49 46 45 44 42 40 38 37 35 34 32 30 28 28 27 26 26 25 24 24 23 22 22 22 23 23 20 18 15 14 11 9 7 5 3 3 3 3 3 3 3 3 3 2 4 3 2 3 3 3 3 3 3 3 3 3 3 3 3 3 3 3 3 2 1 2 1 2 3 3 3 2 2 2 3 4 5 8 9 10 12 13 14 15 16 17 18 18 17 17 17 17 17 19 22 20 23 23 24 24 24 23 21 26 31 35 39 33 26 32 28 36 33 28 28 32 35 34 42 45 54 62 70 62 51 47 49 41 45 40 46 52 60 58 52 46 44 54 64 66 57 69 73 72 62 60 66 65 72 70 75 71 60 61 66 67 68 69 73 73 66 67 71 74 80 84 86 84 74 76 66 62 57 63 77 87 92 96 99 100 96 84 78 84 80 71 80 76 74 75 82 90 94 101 112 109 107 100 94 87 79 71 67 70 75 78 83 87 94 98 102 96 89 80 79 79 83 90 92 100 110 105 96 88 85 98 105 100 95 96 99 97 104 105 110 111 112 113 112 108 102 99
75 72 69 71 68 65 63 60 58 56 55 54 51 49 47 47 45 43 41 40 39 37 35 34 33 31 29 28 27 26 24 26 25 22 25 22 23 21 26 22 20 16 14 13 11 9 8 6 4 3 3 3 3 3 3 3 3 3 3 3 3 3 3 3 3 3 3 3 3 3 3 3 3 3 3 3 4 3 2 2 1 2 1 2 3 2 1 2 3 4 5 8 9 10 11 12 13 14 15 16 17 16 15 16 16 16 18 15 25 20 23 21 20 23 22 21 23 32 33 32 30 32 21 26 22 31 33 27 30 32 30 30 40 39 51 58 67 57 56 46 43 41 42 35 47 48 50 43 46 45 42 52 53 56 55 61 63 69 60 59 65 60 60 58 70 71 66 58 59 61 62 64 64 66 61 63 68 67 73 81 77 79 71 72 68 59 55 68 74 83 90 98 107 103 91 80 75 79 71 69 73 69 73 69 75 82 92 100 104 98 96 93 86 81 80 70 67 65 72 78 83 89 101 102 91 98 86 79 74 77 79 87 94 104 115 106 94 87 84 96 96 98 93 99 100 95 102 100 115 114 122 117 118 112 107 102
76 74 72 70 67 65 62 61 60 57 55 53 51 49 47 46 45 43 41 40 39 37 35 34 33 31 30 28 27 26 25 26 26 25 28 22 22 22 26 22 20 16 14 13 11 9 8 6 4 3 3 3 3 3 3 3 3 3 3 3 3 3 3 3 3 3 3 3 3 3 3 3 3 3 3 3 4 3 2 2 1 2 1 2 3 2 1 2 3 4 5 7 8 9 10 11 12 13 14 15 16 15 15 15 15 15 13 18 24 18 20 21 19 21 21 26 31 29 20 21 22 26 23 18 18 24 27 23 28 30 30 29 33 36 44 59 60 53 52 49 40 39 38 33 43 46 55 50 40 40 38 43 47 44 51 53 53 57 56 53 59 51 55 61 71 77 67 56 57 57 55 59 61 66 60 59 63 64 70 75 71 70 66 66 62 56 55 66 72 77 82 91 100 101 97 90 80 70 65 64 68 68 68 69 79 87 88 97 98 91 87 85 80 78 75 69 65 61 68 73 79 90 98 95 87 97 91 79 71 76 81 87 96 106 111 106 98 89 82 90 92 95 91 96 94 91 96 105 110 114 125 127 124 116 112 111
83 78 74 69 67 64 62 63 65 58 56 52 51 49 47 45 44 42 41 40 39 37 35 34 33 31 30 28 27 26 26 24 24 25 27 22 22 24 26 21 20 16 14 13 11 9 8 6 5 5 5 4 3 3 3 3 3 3 3 3 3 3 3 3 3 3 3 3 3 3 3 3 3 3 3 3 4 3 2 2 1 2 1 2 3 2 1 2 3 4 5 6 7 8 9 10 11 12 13 14 15 15 14 14 14 14 16 23 29 20 18 19 17 19 18 23 29 19 14 15 15 20 18 14 13 17 21 20 25 28 25 29 35 43 50 56 52 50 44 45 43 36 37 34 43 53 60 48 45 40 41 39 43 40 45 47 51 59 54 45 52 42 53 54 65 78 68 54 55 53 54 57 59 61 58 54 56 61 65 75 73 68 62 59 56 51 54 61 67 68 75 89 91 93 87 84 81 74 70 66 63 63 65 72 79 85 86 94 94 90 84 82 76 74 76 75 68 62 72 80 84 88 89 86 85 88 90 82 71 73 79 85 91 100 106 110 101 92 81 82 93 91 86 91 88 92 94 101 103 111 119 127 125 119 119 119
91 79 74 68 66 64 61 65 65 60 56 53 50 48 46 45 43 41 40 39 38 37 35 34 32 31 30 27 26 28 25 24 23 23 23 22 23 25 23 20 19 17 15 13 11 9 8 6 5 4 4 4 4 3 3 3 3 3 3 3 3 3 3 3 3 3 3 3 3 3 3 3 3 3 3 3 3 3 3 2 2 2 2 2 2 3 2 1 1 2 3 6 7 8 9 9 8 12 14 13 13 13 13 13 15 15 16 20 25 21 18 17 18 18 17 18 26 14 7 10 9 15 13 11 12 16 19 17 22 25 22 30 34 39 43 51 51 46 36 36 44 35 35 38 39 56 55 45 41 38 38 37 38 45 46 39 40 42 44 39 41 39 52 45 56 70 66 54 49 51 51 52 51 54 53 53 51 56 65 72 73 67 61 58 52 49 54 59 63 69 75 84 82 83 84 76 74 71 64 57 59 59 68 71 73 78 79 86 85 85 79 77 78 71 67 72 65 58 66 75 78 78 79 83 82 84 83 84 74 70 78 83 88 96 111 112 105 94 81 79 93 90 86 88 85 94 103 100 105 115 118 121 122 115 121 120
88 78 72 70 67 66 66 71 68 60 56 53 50 48 46 45 44 42 40 39 38 37 35 34 32 31 30 28 28 28 26 24 23 21 21 20 21 23 21 19 18 16 14 13 11 9 8 6 5 4 4 4 5 3 3 3 3 3 3 3 3 3 3 3 3 3 3 3 3 3 3 3 3 3 3 3 3 3 3 2 2 2 2 2 2 2 2 1 1 2 3 5 6 7 8 8 9 11 13 12 12 12 12 13 14 12 16 15 16 17 17 16 18 17 16 24 25 10 5 8 7 10 15 15 12 16 18 18 21 22 22 33 36 38 46 48 49 46 40 33 31 36 31 31 41 45 49 45 37 36 36 36 36 46 46 40 30 34 40 41 36 36 45 41 46 58 53 53 48 48 50 51 49 52 52 51 48 54 61 66 69 64 58 55 50 50 54 58 66 77 79 73 73 73 76 70 67 65 61 53 56 57 64 62 66 70 76 82 78 76 78 74 72 71 67 63 62 58 63 70 74 74 73 78 77 79 77 80 74 68 75 82 91 100 108 102 99 89 81 75 91 87 83 81 82 89 99 98 104 111 115 118 118 114 122 118
84 77 71 69 68 66 67 69 63 60 56 53 50 48 46 45 45 44 40 39 38 37 35 34 32 31 30 28 31 27 26 24 23 21 20 19 17 19 19 18 18 15 14 13 11 9 8 6 5 6 6 6 5 3 3 3 3 3 3 3 3 3 3 3 3 3 3 3 3 3 3 3 3 3 3 3 3 3 3 2 2 2 2 2 2 1 2 3 1 2 3 5 5 6 5 8 9 10 13 11 11 11 11 12 14 14 16 10 10 14 15 15 16 15 14 22 18 8 3 4 3 3 8 11 11 14 15 16 18 20 22 28 30 36 44 46 46 46 39 31 31 31 29 31 42 36 39 44 37 33 33 33 36 37 36 41 36 28 32 36 31 35 36 38 47 54 49 47 45 44 48 48 47 48 48 48 46 51 54 60 66 59 56 50 47 49 52 55 63 67 68 66 68 66 68 65 60 56 56 50 54 52 57 57 65 67 75 79 73 71 78 75 66 67 67 62 58 55 61 64 69 70 65 70 71 73 72 73 70 67 74 86 92 96 102 97 100 85 77 73 87 85 82 79 86 93 98 95 100 108 110 109 114 110 119 119
85 77 71 73 73 70 70 73 65 60 54 53 50 48 46 46 44 43 41 40 38 37 35 34 32 31 30 28 30 24 23 23 22 21 20 19 18 18 16 16 16 14 13 12 10 9 8 7 6 7 7 6 6 4 3 3 3 3 3 3 3 3 3 3 3 3 3 3 3 3 3 3 3 1 2 3 3 3 3 2 2 2 2 2 2 2 2 2 2 2 2 3 4 5 5 7 9 10 11 10 10 11 12 12 16 15 13 11 12 13 13 13 12 14 13 16 10 5 2 1 4 7 7 9 10 12 14 14 17 18 21 25 32 42 38 44 42 44 35 30 27 27 27 28 29 29 29 33 36 32 32 32 31 32 36 34 31 29 28 32 31 32 32 37 45 53 52 47 43 41 45 44 47 46 45 47 43 48 50 58 61 56 54 48 47 47 50 53 58 56 58 59 61 58 62 64 60 55 52 50 52 51 52 58 67 71 76 74 70 70 69 70 62 62 65 64 57 53 58 62 67 66 62 64 69 69 71 65 67 67 76 87 85 92 99 88 89 85 77 71 79 83 81 77 82 90 96 93 102 105 105 105 113 108 115 124
83 76 72 75 75 71 71 67 64 60 54 52 49 47 45 46 44 42 42 40 38 37 35 34 32 31 30 28 30 25 23 22 22 21 20 19 18 17 16 15 15 14 13 12 10 8 8 7 6 6 5 5 5 4 3 3 3 3 3 3 3 3 3 3 3 3 3 3 3 3 3 3 3 1 2 3 3 3 3 2 2 2 2 2 2 2 2 2 2 2 2 3 3 4 4 6 8 10 10 10 9 10 11 8 9 8 10 10 10 13 13 13 12 14 14 17 5 4 2 1 4 7 7 8 9 10 13 14 18 17 22 22 31 35 34 33 32 39 34 32 27 26 26 27 24 24 25 28 33 32 32 32 30 30 33 31 27 25 27 30 30 30 30 43 45 50 49 43 41 40 43 41 47 45 43 44 40 43 45 56 54 56 49 44 45 44 46 50 50 50 51 53 54 52 54 59 56 54 48 49 49 52 55 56 58 64 74 71 64 64 62 63 56 62 61 59 55 52 56 58 62 64 59 58 62 64 65 61 63 67 79 78 84 99 98 83 80 77 77 66 76 81 78 74 75 92 87 94 100 99 97 105 107 106 114 118
78 75 75 78 77 75 71 64 62 60 54 52 50 49 47 46 44 42 42 40 38 37 35 34 32 31 30 26 29 26 25 24 23 21 20 19 17 16 15 14 14 13 13 12 10 8 8 9 9 7 5 4 4 3 2 3 3 3 3 3 3 3 3 3 3 3 3 3 3 3 3 3 3 1 2 3 3 3 3 2 2 2 2 2 2 2 2 2 2 2 2 2 2 3 4 5 7 8 8 8 8 9 10 8 7 8 9 9 9 11 11 11 11 11 13 20 7 3 2 1 4 5 6 7 8 9 12 12 15 15 20 25 26 31 29 21 26 33 28 27 24 24 25 24 23 22 24 26 30 30 30 30 27 28 31 33 28 22 25 28 28 27 27 37 37 40 40 39 38 38 40 38 44 47 42 40 39 37 41 51 46 50 45 41 43 42 44 46 47 47 48 47 46 48 51 56 52 48 44 45 44 49 54 67 67 70 70 70 63 61 63 58 57 61 60 56 51 51 53 57 53 59 58 58 59 60 56 62 67 72 81 74 87 90 96 83 81 73 68 70 76 79 78 78 74 87 82 91 92 98 94 104 98 98 111 113
77 76 78 81 80 77 72 66 61 57 54 53 51 50 49 46 44 42 42 40 38 37 36 35 33 31 29 27 27 26 26 25 23 20 20 18 17 16 15 15 14 13 13 11 10 8 10 12 10 8 6 5 4 2 2 3 3 3 3 3 3 3 3 3 3 3 3 3 3 3 3 3 2 1 2 2 3 3 3 2 2 2 2 2 2 2 2 2 2 2 1 2 3 3 3 5 7 7 7 7 8 8 9 7 6 7 9 9 10 10 10 10 11 10 11 17 10 4 2 2 3 4 5 6 7 8 10 11 12 12 13 21 17 29 24 17 24 25 19 18 21 23 22 22 22 24 26 27 29 29 28 29 27 27 29 32 32 22 23 25 26 25 25 25 30 31 35 40 38 37 39 38 39 46 42 40 39 35 40 45 42 41 41 40 41 42 43 44 41 41 41 44 42 45 46 47 47 45 43 43 43 45 50 57 57 59 60 62 57 63 60 55 55 53 51 52 50 50 52 56 52 49 51 54 56 57 55 62 65 69 75 72 78 88 92 86 88 82 72 63 72 80 78 68 75 85 83 85 89 90 91 94 88 90 106 103
80 78 79 85 83 80 76 70 63 57 55 53 52 51 51 48 46 44 44 41 37 38 37 35 32 31 30 30 27 27 26 24 22 20 19 18 15 15 15 14 13 12 11 9 12 10 12 13 12 11 7 5 4 3 2 3 3 3 3 3 3 3 3 3 3 3 3 3 3 3 4 3 2 2 2 2 3 3 3 2 2 2 2 3 2 2 2 2 3 2 1 3 3 3 2 4 6 7 7 7 8 8 8 7 7 7 8 8 9 10 10 10 11 10 9 8 7 3 3 3 3 3 4 5 6 7 8 10 11 11 11 15 13 19 18 14 20 19 17 18 21 22 22 21 21 24 25 27 28 28 26 27 26 25 27 28 24 23 22 23 24 23 24 22 26 27 32 36 35 35 36 35 34 34 35 36 37 34 38 38 36 37 38 38 38 41 41 42 40 38 40 40 40 43 44 40 43 42 42 41 44 45 48 48 47 50 53 56 53 58 54 53 52 49 49 50 48 49 51 54 52 47 49 53 54 55 55 59 60 64 68 67 74 82 83 76 82 86 71 65 68 76 79 70 80 83 78 83 90 86 89 93 84 85 94 96
83 80 80 87 84 83 77 74 65 60 57 53 54 55 55 52 50 45 44 42 40 40 38 35 33 32 30 31 27 26 25 23 21 18 18 17 15 15 15 14 13 12 12 10 13 11 12 11 9 9 7 6 5 4 4 3 3 3 3 3 3 3 3 3 3 3 3 3 3 3 4 3 2 2 2 2 3 3 3 2 2 2 2 3 2 2 2 2 3 2 1 3 3 3 2 3 5 5 5 5 6 6 6 5 5 5 6 7 8 8 8 8 9 8 7 5 4 3 3 3 3 2 3 4 5 6 7 8 9 9 9 8 7 9 11 10 14 14 15 17 19 20 20 19 20 23 23 24 26 26 24 26 25 24 27 27 18 22 20 21 22 20 22 20 23 24 29 31 31 32 33 32 31 31 33 35 34 31 35 33 32 34 36 36 36 37 38 39 39 34 38 35 37 41 41 37 37 37 38 39 43 41 43 42 44 44 43 49 49 51 51 54 52 47 46 48 46 46 49 52 50 45 48 52 51 52 55 57 56 58 61 64 71 76 81 71 78 83 69 59 63 68 67 62 70 81 75 82 86 83 84 89 79 79 87 89
84 80 81 87 84 84 81 80 71 66 61 56 55 55 58 53 51 47 44 43 42 42 40 36 36 32 30 30 25 24 24 22 20 18 19 17 17 17 16 15 14 14 15 13 12 10 10 9 7 6 6 6 5 4 3 3 3 3 3 3 3 3 3 3 3 3 3 3 3 3 3 3 2 2 2 2 2 2 3 2 2 1 1 2 2 2 2 2 3 2 1 2 2 2 2 3 4 5 5 5 5 5 5 5 5 5 5 6 7 7 7 7 7 6 5 5 4 2 3 3 3 2 3 3 5 5 6 7 7 7 8 6 5 5 8 8 10 11 13 15 16 17 18 18 19 21 22 23 23 24 23 24 24 23 23 27 21 18 19 19 20 19 19 20 24 24 28 28 30 32 32 31 30 30 31 32 31 30 32 30 31 34 34 34 35 36 36 36 37 33 35 34 36 38 40 36 37 35 36 38 39 38 38 38 39 38 40 44 46 45 46 50 52 47 44 46 45 45 47 50 47 45 47 49 50 51 53 56 54 56 60 64 69 72 72 67 71 76 70 56 61 61 57 64 75 76 76 81 80 83 81 85 77 82 89 80
82 81 82 86 87 86 84 84 78 66 62 58 57 58 58 59 54 50 49 46 43 40 39 38 37 34 33 28 22 22 20 20 20 20 22 20 18 18 17 15 15 15 15 14 12 11 10 9 8 7 6 5 5 4 3 3 3 3 3 3 3 3 3 3 3 3 3 3 3 3 3 3 3 2 2 2 1 2 3 3 2 1 1 2 3 2 2 2 3 2 1 2 2 2 3 3 3 5 5 5 5 5 5 5 5 5 5 5 6 7 7 7 7 6 5 4 3 2 3 3 3 3 3 3 4 5 5 5 6 6 6 6 4 4 6 9 9 10 13 14 16 16 16 16 18 20 21 23 21 23 23 23 23 21 20 23 20 17 18 18 18 18 17 21 24 26 27 27 28 30 30 29 28 28 31 30 29 29 29 28 30 33 32 33 34 35 34 33 34 33 32 31 31 32 33 31 32 35 34 36 36 36 37 37 35 36 36 41 41 41 43 45 45 43 42 43 44 44 45 48 44 44 45 48 49 51 50 54 53 54 57 58 60 68 61 61 63 69 67 56 59 56 63 71 72 75 75 80 76 77 77 79 71 79 80 74
83 86 86 87 93 88 89 81 71 65 65 61 60 66 62 61 55 52 53 50 45 40 39 38 35 31 31 26 21 22 20 20 22 21 22 20 19 19 18 16 15 15 13 13 13 12 11 10 9 8 7 7 6 5 4 3 3 3 3 3 3 3 3 3 3 3 3 3 3 3 3 3 3 2 2 2 1 2 3 3 2 1 1 2 3 2 2 2 3 2 1 2 2 2 3 3 3 3 3 3 3 3 3 3 3 3 3 4 5 5 5 5 5 5 4 4 3 2 3 3 3 3 3 3 3 3 3 4 4 4 4 4 3 3 5 8 9 9 11 13 13 14 15 15 17 19 20 22 20 21 21 21 21 20 20 18 16 17 16 16 16 15 18 20 23 25 27 26 26 26 28 27 26 25 28 27 27 27 27 28 29 30 30 31 32 33 32 31 32 31 30 30 31 33 32 30 31 33 32 34 34 33 33 33 31 32 32 37 38 38 42 42 39 41 40 40 41 43 44 47 42 43 44 47 48 49 47 52 51 51 53 54 56 68 57 57 59 60 60 54 57 54 63 68 69 68 69 77 72 74 76 76 68 76 76 72
85 90 89 91 92 90 87 81 76 69 70 62 64 70 68 66 61 60 55 51 48 43 40 37 32 29 27 26 22 22 24 24 23 21 21 19 19 19 18 17 16 14 14 13 12 12 12 10 9 9 7 7 7 5 5 4 3 3 3 3 3 3 3 3 3 3 3 3 3 3 3 3 3 2 2 2 1 2 3 3 2 1 1 2 3 2 2 2 3 2 2 1 2 2 2 3 2 3 3 3 3 3 3 3 3 3 3 3 4 5 5 5 4 4 3 3 3 2 2 3 3 2 3 2 2 3 2 3 3 3 3 3 3 3 5 6 8 8 10 11 11 13 14 15 16 18 19 21 20 20 19 19 19 19 19 19 15 15 15 15 15 13 18 20 22 23 25 24 24 24 26 25 25 24 25 25 25 25 26 27 28 28 29 29 30 31 30 29 30 30 28 27 28 29 28 27 29 31 30 32 33 32 31 30 29 29 33 31 38 41 44 41 37 39 39 38 40 42 43 44 40 42 43 45 46 48 46 49 49 49 49 48 52 60 52 51 55 55 57 53 54 54 60 62 64 64 68 74 70 71 70 67 62 69 68 68
89 92 94 96 93 90 85 87 81 76 71 63 69 70 73 71 68 64 54 56 51 46 43 39 36 32 28 26 24 24 25 25 24 22 22 21 20 20 19 19 18 15 14 14 13 12 12 11 9 9 8 7 7 6 5 5 3 3 3 3 3 3 3 3 3 3 3 3 3 3 3 3 3 2 3 1 1 2 3 2 2 2 2 2 2 2 2 2 3 3 3 1 2 3 2 2 2 3 3 3 3 3 3 3 3 3 3 3 3 3 3 3 3 3 3 3 3 3 2 2 2 2 2 2 2 2 2 2 2 2 2 3 3 2 3 6 7 8 9 10 11 12 13 14 16 18 19 19 20 19 19 19 18 18 18 17 15 13 14 14 14 12 17 19 20 21 22 23 23 23 24 24 24 23 23 23 23 24 25 25 26 27 28 28 28 29 28 27 28 29 27 27 26 25 25 27 29 29 29 29 31 30 29 29 27 28 30 35 43 45 45 43 37 36 37 38 39 41 41 41 38 41 42 43 44 45 45 46 46 48 46 46 49 55 50 48 51 51 54 49 48 52 59 59 62 66 64 63 68 69 63 59 63 61 62 75
92 95 101 99 95 91 87 91 86 85 72 70 75 75 78 74 70 65 57 63 51 53 49 43 39 36 31 28 26 27 27 26 25 24 23 22 22 21 20 20 18 16 15 15 14 13 13 12 11 10 9 9 8 7 6 5 3 3 3 3 3 3 3 3 3 3 3 3 3 3 3 3 3 2 3 1 1 2 3 2 2 2 2 2 2 2 2 2 3 3 3 1 2 3 2 2 2 3 3 3 3 3 3 3 3 3 3 3 3 2 2 2 3 3 3 3 3 3 2 2 2 2 2 2 2 2 2 2 2 2 1 1 1 1 2 5 6 7 8 9 10 11 11 13 15 17 16 17 18 17 17 17 16 16 16 15 14 13 12 12 12 12 16 16 18 19 20 21 21 21 22 22 22 21 21 21 21 22 23 23 24 25 26 26 26 27 26 25 27 27 25 25 24 23 25 25 25 27 27 27 29 28 27 27 25 26 26 38 37 38 38 40 39 34 34 38 38 38 39 39 36 39 39 40 42 43 43 44 42 44 43 43 47 52 46 45 46 47 51 46 48 48 49 53 55 60 63 69 78 72 61 56 57 64 72 76
92 95 103 102 97 92 92 93 92 86 71 77 79 78 82 79 73 70 62 64 53 58 52 46 42 37 33 29 28 28 27 27 25 25 24 23 22 22 21 20 19 17 16 16 15 14 14 12 11 11 10 9 9 7 7 5 3 3 3 3 3 3 3 3 3 3 2 3 3 3 3 3 3 2 3 1 1 2 3 2 2 2 2 2 2 2 2 2 2 3 3 1 2 3 2 2 2 3 3 3 3 3 3 3 3 3 3 3 3 3 3 3 3 3 3 2 2 2 2 2 2 2 2 2 2 2 2 2 3 3 2 1 1 1 2 4 5 6 7 8 9 10 11 13 14 15 15 17 17 16 16 16 14 14 14 13 13 12 10 11 11 12 14 14 16 17 19 19 19 20 20 20 20 20 19 20 20 21 22 22 23 24 25 25 25 25 25 24 25 25 23 23 22 22 23 24 24 25 25 25 27 27 25 26 23 24 25 33 28 28 29 34 38 34 33 36 37 37 37 37 35 38 38 40 41 41 41 41 41 42 41 42 43 47 44 43 43 47 49 45 46 51 53 57 59 62 63 62 62 65 54 54 63 70 71 73
89 93 100 101 98 95 93 95 88 76 77 86 83 81 87 82 76 72 70 65 59 60 52 50 48 41 37 30 29 28 28 28 27 26 25 24 22 21 21 20 19 18 16 17 17 15 15 12 11 12 10 10 9 7 7 5 3 3 3 3 3 3 3 3 2 2 2 3 3 3 3 3 3 2 3 1 2 2 2 2 2 2 2 2 2 2 2 2 1 2 3 2 2 2 2 2 2 2 2 2 2 2 2 2 2 2 3 3 3 3 3 3 2 2 2 1 1 1 3 3 3 3 3 3 2 2 2 2 2 2 2 2 2 2 2 4 4 5 6 7 8 9 10 13 13 14 15 16 15 15 15 15 13 13 13 12 11 11 10 10 10 11 12 13 14 16 17 18 18 18 18 18 18 18 18 18 19 20 21 21 22 23 23 23 23 23 23 23 24 23 22 21 21 21 21 22 23 22 23 24 25 24 24 24 22 23 22 26 24 20 23 28 34 32 33 35 35 35 35 35 35 37 38 39 39 39 39 39 40 40 40 40 40 40 42 40 42 46 44 44 50 53 55 54 55 53 60 53 56 59 50 55 60 64 70 74
89 91 96 97 95 93 91 89 81 79 86 97 89 86 92 89 84 74 78 68 63 65 57 55 48 42 38 32 31 30 29 29 28 26 25 24 23 23 21 20 20 19 17 18 18 16 15 13 12 12 10 10 9 7 7 5 3 3 3 3 3 3 3 3 2 2 2 3 3 3 3 3 3 2 3 1 2 2 2 2 2 2 2 2 2 2 2 2 1 2 3 2 2 2 2 2 2 2 2 2 2 2 2 2 2 2 3 3 3 1 1 1 2 2 2 2 3 3 3 3 3 3 3 3 2 2 2 2 2 2 2 2 2 2 2 4 4 4 5 6 7 8 9 10 11 12 13 14 13 13 13 13 11 11 11 11 10 9 8 8 8 10 11 11 13 15 16 16 16 16 16 16 16 16 16 16 17 18 19 19 20 21 21 21 21 21 21 21 22 21 20 19 19 19 19 20 21 20 21 22 23 22 21 20 22 21 19 20 19 21 24 27 31 29 32 34 33 33 33 31 33 36 35 36 37 37 37 37 36 36 36 36 36 36 39 39 42 44 41 40 45 45 45 46 48 45 54 47 50 52 46 53 56 59 67 67
92 90 90 93 91 90 88 83 82 90 91 99 96 91 92 94 89 77 78 73 65 71 62 57 53 47 41 34 32 31 30 30 28 27 25 24 26 25 22 21 21 19 18 19 18 17 16 14 13 11 11 9 9 7 7 5 4 3 4 3 3 3 3 3 2 2 2 3 3 3 3 3 3 2 3 2 2 2 2 2 2 2 2 2 2 2 2 2 1 2 3 2 2 2 2 2 2 2 2 2 2 2 2 2 2 2 3 3 3 1 1 1 2 2 2 3 3 3 3 3 3 3 3 3 2 2 2 2 2 2 2 2 2 2 2 3 3 3 5 5 6 7 8 9 10 10 11 12 12 13 13 13 11 11 11 10 10 8 8 8 8 8 9 10 12 13 15 15 15 15 14 14 14 15 15 15 16 17 18 18 19 20 20 20 20 20 20 20 20 20 19 19 19 18 18 19 20 19 19 21 21 21 20 18 21 20 18 18 18 21 23 25 29 28 31 32 32 32 31 30 32 34 34 35 36 36 36 35 35 34 34 34 34 34 37 37 40 41 39 39 44 42 40 43 45 41 47 43 48 49 46 54 62 67 69 78
92 90 89 89 88 86 87 86 89 95 100 101 100 96 95 96 85 81 80 77 69 76 65 58 64 52 40 40 34 34 32 31 30 28 29 28 28 27 23 22 22 21 19 19 18 17 17 15 14 11 12 9 9 8 7 6 5 4 7 5 2 3 3 3 2 2 2 3 3 3 3 3 3 3 3 3 3 3 3 3 3 3 2 2 2 2 2 2 2 2 2 2 2 2 2 2 2 2 2 2 2 2 2 1 2 3 3 3 3 3 3 3 3 3 3 3 3 3 3 3 3 3 3 3 2 2 2 2 2 2 2 2 2 2 2 2 3 4 4 4 5 6 7 8 9 10 11 11 11 11 11 11 10 10 10 9 10 6 7 7 7 7 8 8 10 11 12 13 13 13 13 13 13 13 14 15 15 16 16 17 17 17 18 18 18 19 18 19 18 18 18 16 18 17 16 17 18 19 17 19 18 18 18 18 19 17 17 19 21 24 24 26 28 29 30 30 30 30 30 30 31 32 33 33 33 34 34 34 34 33 32 32 32 32 34 36 38 38 38 38 42 39 36 39 42 37 41 42 50 45 45 51 55 65 73 73
93 91 89 88 87 87 91 89 89 95 101 104 103 103 101 98 94 85 79 74 73 80 70 62 61 49 44 43 37 36 33 33 32 31 32 30 27 25 24 23 23 22 21 20 19 18 17 15 15 12 13 10 10 9 8 7 6 6 8 6 3 3 3 3 1 1 1 3 3 3 3 3 3 3 3 3 3 3 3 3 3 3 2 2 2 2 2 2 2 2 2 2 2 2 2 2 2 2 2 2 2 2 2 1 2 3 3 3 3 3 3 3 3 3 3 3 3 3 3 3 3 3 3 3 2 2 2 2 2 2 2 2 2 2 2 2 2 2 2 3 4 5 6 7 8 9 9 9 9 9 9 9 8 8 8 8 8 6 5 5 5 6 7 7 8 9 10 11 11 11 11 11 11 11 12 13 14 15 15 15 15 15 16 16 16 17 17 17 16 16 16 15 16 15 14 15 16 17 15 17 16 16 16 16 15 15 18 19 21 24 24 26 26 27 27 28 28 28 28 29 30 31 31 31 32 32 32 32 31 31 30 30 30 30 32 35 36 36 36 36 40 39 36 35 34 34 37 47 40 41 48 59 61 63 68 72
94 92 90 88 89 89 90 90 92 93 98 103 104 106 104 104 88 82 80 81 80 80 73 71 67 57 48 43 37 34 34 35 33 33 30 28 27 25 25 24 24 22 21 21 19 18 17 15 15 12 14 11 11 9 9 8 6 6 9 7 4 3 3 3 3 3 3 3 3 3 3 3 3 3 3 3 3 3 3 3 3 3 2 2 2 2 2 2 2 2 2 2 2 2 2 2 2 2 2 2 2 2 2 1 2 3 3 3 3 3 3 3 3 3 3 3 3 3 3 3 3 3 3 3 2 2 2 2 2 2 2 2 2 2 2 2 2 2 2 2 3 4 5 6 7 8 9 9 9 8 8 8 7 7 7 7 7 5 5 5 5 5 6 7 7 8 9 10 10 10 10 10 11 10 11 12 13 14 15 14 14 14 15 15 15 16 15 16 15 15 15 13 14 14 13 14 15 15 14 15 15 15 15 14 14 17 19 20 22 23 24 26 25 25 27 27 27 27 27 28 30 30 30 30 30 31 31 31 31 29 29 29 29 29 29 32 33 35 35 35 38 38 36 35 31 33 38 36 41 40 43 51 55 57 66 69
99 94 92 90 90 90 91 94 93 96 97 102 107 109 110 102 86 88 82 82 85 84 81 76 68 57 51 45 46 37 34 36 36 31 31 30 27 27 26 24 24 23 22 21 19 18 17 16 16 16 13 12 11 10 8 7 7 7 8 7 5 4 3 2 3 3 3 3 3 3 3 3 3 3 3 3 3 3 3 3 3 3 2 2 2 2 2 2 2 2 2 2 2 2 2 2 2 2 2 2 2 2 2 2 2 2 3 3 3 3 3 3 3 3 3 3 3 3 3 3 3 3 3 3 3 3 3 2 2 2 2 2 2 2 2 2 1 1 3 3 3 3 3 5 6 7 7 7 7 7 7 7 6 5 5 5 5 5 5 5 5 4 5 6 7 7 7 8 8 8 8 9 9 9 10 11 12 12 12 13 13 13 14 14 14 15 15 15 15 14 13 12 12 12 13 11 12 13 13 13 13 13 13 12 14 16 18 19 20 22 22 23 23 24 25 25 25 25 26 27 28 28 28 28 29 30 30 30 30 29 28 27 27 27 28 30 32 33 33 33 36 36 36 33 30 31 33 36 37 37 39 44 49 52 63 64
102 96 93 94 94 94 94 94 95 96 98 101 107 112 114 97 91 92 87 85 86 85 83 74 63 59 62 52 41 39 36 38 36 33 32 31 29 28 27 26 25 24 23 22 20 19 18 17 17 16 14 13 12 11 10 8 8 8 7 7 8 6 4 2 3 3 3 3 3 3 3 3 3 3 3 3 3 3 3 3 3 3 2 2 2 2 2 2 2 2 2 2 2 2 2 2 2 2 2 2 2 2 2 2 2 2 3 3 3 3 3 3 3 3 3 3 3 3 3 3 3 3 3 3 3 3 3 2 2 2 2 2 2 2 2 2 1 1 3 3 3 3 3 4 5 6 5 6 6 5 6 5 5 4 4 4 4 4 4 3 3 3 4 5 5 5 5 6 6 7 7 8 8 7 8 9 11 10 10 11 11 11 13 13 13 14 13 14 13 12 11 11 10 10 11 9 10 11 12 11 11 11 12 11 13 15 17 17 18 20 21 22 22 22 23 24 23 24 24 24 25 26 27 26 27 29 28 28 28 27 26 26 25 26 27 29 31 32 32 31 33 32 32 31 30 31 32 34 35 35 36 39 43 53 57 54
100 96 96 98 98 98 96 94 98 97 100 100 107 114 113 103 100 98 93 88 85 83 80 66 65 72 57 45 48 46 38 39 35 33 32 31 30 29 27 26 26 24 24 23 21 19 19 17 17 17 15 14 13 11 11 9 9 9 8 5 6 5 5 6 3 3 3 3 3 3 3 3 3 3 3 3 3 3 3 3 3 3 2 2 2 2 2 2 2 2 2 2 2 2 2 2 2 2 2 2 2 2 2 2 2 2 3 3 3 3 3 3 3 3 3 3 3 3 3 3 3 3 3 3 3 3 3 2 2 2 2 2 2 2 2 2 1 1 3 3 3 3 3 3 4 5 5 5 5 4 4 4 5 4 3 3 3 3 3 3 3 2 3 4 4 4 4 5 5 5 6 7 8 6 7 8 9 9 9 10 10 10 11 11 11 12 12 12 12 11 10 9 9 9 10 8 9 10 10 10 10 10 10 11 12 14 15 15 17 20 20 22 20 20 22 23 23 23 23 23 25 25 25 25 26 27 27 27 27 25 25 25 25 25 27 28 30 30 30 30 31 31 31 29 29 31 30 32 34 33 35 39 45 53 53 46
